-29.1845787728 -60.5517068786 295.0212834508
-8.0833407695 -46.2028775039 294.1478128221
19.9292861266 57.5544465132 401.9776505072
25.6869558044 83.6277800244 406.2382184069
-18.6858037537 -47.4565584048 364.8232257584
95.6048703954 53.5010460447 308.0753486170
-36.6675664558 -93.7176999275 270.9276666336
1.5910069547 -52.8715372605 278.2554813865
-63.4723841281 -56.5485577739 328.5574563793
-8.5557394198 -36.4608076871 330.0253428961
-115.0437814415 -82.3535973216 318.9325834197
-15.8225729461 -40.9443555279 387.0015821829
19.7735455754 -18.2793687873 303.4454679097
-122.4549083946 -78.2253842328 327.0504553655
10.5681922909 -88.2574995476 226.6345632067
94.0218102417 66.2114738323 319.5403940477
-64.1161505569 0.3308921224 395.6524727400
-24.4712384631 -9.4217637014 369.1998443852
41.4413440037 -10.5132730274 316.1310504794
71.6017948267 91.9409611045 367.3192514650
33.3337442714 56.1308508433 379.0702830232
-17.4740400182 -31.4818660940 377.7267545544
20.2092102663 -17.8097078585 312.6542203077
56.4796609846 -55.4844177525 235.9602119747
-4.7981464969 8.7799370632 385.2167414859
-44.2581839253 -21.9042780001 353.5494440204
38.7553887259 83.2825447523 406.9684515974
-130.4472443636 -36.4172040521 383.4888826770
-16.5723563872 -41.3422770987 330.9582595593
-18.5563341691 26.2753927580 404.2299867335
-70.5488859179 -8.2937820563 390.9593564191
17.8278285841 -63.6507592986 252.3256669807
-85.6376587730 -78.4914774252 341.1799220699
89.9728443410 77.1632210157 334.3735853511
-29.2144590044 15.0507382118 392.8669557857
11.6012436890 -51.2707387632 311.3691682883
-6.2983084066 -38.4522744586 301.8001654406
7.4797461733 25.0666312532 374.4590796299
94.2225289972 -12.2487126859 250.3451230864
-49.8423072348 -65.4494462349 315.3277901581
-27.0508013872 -30.5899520078 352.5629369784
3.7565767857 -41.7233660614 297.6681586192
-48.4197708558 -81.4070983700 286.6716278129
-1.1854277970 -40.9141920552 330.3015812288
49.1527915279 -44.5480245094 257.4811320659
-21.2725054540 -98.9694589396 246.1495550447
-25.3490285455 2.3252891291 380.1129968818
-28.3560972799 -34.4792539065 325.7295371770
41.9856209371 -13.2511563450 342.0601735221
64.0674972933 26.0746393028 338.9212713085
-18.2857781316 49.2485541798 424.3772214947
-31.6243741703 -48.0275450194 311.8303234272
-63.0382175923 -4.8332358156 397.9873721437
-44.5837828073 21.4937322057 413.4783582754
-105.8704598792 -73.2976304830 337.2688797687
45.5328375271 -48.5568467506 326.0738260552
96.6853554409 15.1702627055 289.6654453421
-17.4082173044 25.5672108919 386.1618765356
70.8167032750 11.8473307342 296.0577872369
-78.4252685022 7.4030750114 425.0933016900
-67.7676782034 -98.0166425554 256.9023775211
98.6144616242 -6.3919650226 258.2413056162
-128.9054157083 -56.9329262172 369.7079837050
45.2751844740 70.2247173027 395.6093536411
29.0036816102 74.7241421538 404.6391774686
-41.2048074205 1.9417765640 387.4652887626
96.3497570584 29.6376438288 275.2765782870
45.2136532193 -26.5679507834 320.3556111928
30.6461717852 86.5593617699 412.8366570829
-55.7037129557 9.9272764383 409.2838621926
-36.8716475331 -37.8750793071 362.9084974175
-49.2638087079 -80.4103674948 288.5313283892
30.2379448178 -71.8856103272 213.3320866624
57.3807639233 80.2563192885 383.3540157041
-15.3305528064 -84.1510297592 255.8427777917
51.7220906912 70.0884881745 389.9944248902
-82.6925981758 -26.9748309194 379.3539389405
47.0111854240 -24.3562362418 282.9576741312
-57.2342009277 10.1062847564 410.8168934985
57.8731547490 -37.7545430892 249.1855270680
-1.1362415014 -62.3808940906 269.4373830528
86.4577293955 15.5413609168 303.2055375633
11.6352007301 -43.1731905922 281.2502118471
45.1628658427 47.1856990760 358.5948018836
-60.8193791033 -96.0110543247 287.5602794571
57.0964707038 -11.7527429745 355.1741388559
-53.3237959136 40.1333867424 436.7464087490
-14.8559007552 -47.2051647077 309.9183348195
-99.6149102659 21.5039347971 425.5928148115
-86.6547283927 9.9222666296 426.5216412065
27.4253314865 48.1881595004 384.6312664327
75.8370808481 44.2575272529 346.3729068071
-40.1523406102 -28.3360691099 363.6780400744
-91.6098059559 -6.2792173648 410.7664178062
-77.5591373866 -98.8978704250 293.7505338612
18.4567598105 82.8862749040 419.9439184771
76.3318576294 38.3194258518 332.5812544700
-46.1252871816 -95.5576208857 276.5683641307
-86.0662523629 -104.0923839265 274.7225784310
-80.6036893429 32.8503489913 433.7190499677
39.6254831767 52.6476672362 369.9211912064
-37.2536814102 -103.5300682639 238.7842687284
17.2974777528 80.1325498303 412.0610820052
-40.5479771793 -66.9718754240 305.7765887232
37.6739095333 -64.1821320263 255.2921613934
-37.6299618886 -56.4151640813 315.7828723173
50.3395955724 -21.6331259708 352.8491445740
18.7358297110 52.3210695721 396.7668908844
26.3002650764 5.7537181117 384.6097356722
-45.8299743987 -50.2874815295 321.0915936314
15.1710350304 -61.4603621350 320.2399001116
-17.0932488679 -28.9543378169 393.9536088369
14.5535005365 -83.3407978904 235.7082899528
-82.9205846945 -97.5724740548 290.3454566671
-34.5018847183 -95.7536124525 230.4801695944
-66.0833495502 41.4390398850 441.1314982775
-1.8770321389 -89.2542792851 219.5062179596
92.6759335109 42.9015979007 313.6745656762
-11.8489925713 -89.6140063815 251.8290986113
-26.6759546790 -38.1818827642 382.3460112515
-74.9730925543 -61.5096885731 332.4672157355
72.9799941852 1.8910221474 293.6688076892
5.4395419372 -82.0959022379 236.1853990973
52.5138064761 80.9531536413 396.6418074124
101.9925951629 24.8620400484 290.4069869938
24.7688375874 -46.9210138717 286.1847683420
41.9293174485 2.0951927963 308.5590771376
-82.8022326636 -12.9839862560 395.9688893109
-118.1315551807 -21.2112534157 407.9110377016
39.7918311491 84.1918744984 405.8569250011
50.6089043984 -3.7128335968 341.7423128394
27.7148772118 24.3402320650 346.5937864250
69.4663970329 19.6495737658 315.9288362762
-62.4525596039 -13.1375826090 387.6731029831
-27.0969188060 -85.6587285129 263.9126348525
-88.1270904125 -45.8983479792 370.8154370999
-50.7627870551 -99.2455599432 240.0882779541
34.3682381120 10.8427814571 371.0941762384
-28.0735262886 66.8398136801 432.6989053764
16.2136091695 -63.5360732782 253.7802768773
-35.4173932859 -46.7480398370 316.5417316670
-73.6042925118 -61.4476037119 348.7716940109
59.4641293518 87.4927509196 380.2385257176
-22.5710345397 -53.7443289531 377.4919632785
38.9661532545 75.1314386746 406.1905051320
55.1100126006 87.7010926492 393.0496909868
-24.8526265934 -91.4571796394 249.6711187451
-111.7961261953 -90.1781343575 322.5717797225
-133.1066951917 -51.4308177961 368.8198994622
-65.8269084297 -53.8933732388 347.9445801788
-27.7378233937 65.7237523221 430.9441784611
86.6242337357 63.5466617486 341.9639588603
-124.1018560220 -78.8422395175 327.8153853788
-13.2040839717 19.3043306926 375.3518016455
20.5410461999 -73.1688053251 217.9895547208
-42.3926933022 -34.7800547518 350.4311033858
49.3309031683 -5.0014998429 334.7448134331
93.7829043630 55.0976568252 312.5161094383
94.9447130136 3.3876699870 273.5145652465
-90.9620975835 -27.3707012376 386.0324568919
-98.3700289667 -47.0572865004 378.3007105426
82.1832443084 -29.2902500979 221.9391533024
-107.8669477647 -8.0905286467 418.6880285384
86.6735926559 44.1223255627 329.7446068551
52.5042581302 -23.7566977450 270.0376896431
103.0315735685 31.0444594229 292.3838957333
-122.1923162703 -59.9910367979 369.9868364761
76.2136984457 -0.7943791055 292.1645191091
-10.9397805605 -52.5692278870 297.8157531227
81.8722093459 87.0670859079 359.8281020622
26.3804685936 71.8171093468 403.4871966742
-16.1155954355 58.8341952565 424.1601766553
-24.2990022167 -93.1218059842 259.5789377474
-36.2749251323 -95.8015317320 265.4638492746
-11.5983343447 -91.8024065944 232.0781037019
-6.1671935647 -66.2126662513 269.1631451393
-92.4133297371 -80.2193353268 342.4524183981
7.7939724420 59.5200252546 404.7256973417
100.5987649175 35.3187819406 278.2555722897
-7.8236217998 49.6226753390 415.9408994909
19.6577219138 -69.0481239199 253.0543371748
-16.1529430156 -87.0884417271 246.4058990895
42.8639550310 15.9486916668 323.9356917405
13.1793974121 -25.5192057567 300.4684016691
67.1670966888 19.5988541820 308.0936789789
18.2358206213 -71.6244562203 212.9771579818
43.6969840288 55.6315617666 369.7271215803
65.4925129557 33.9754721177 326.1644732743
72.9726239748 11.0463573368 293.3040247774
29.1580276202 8.1608541819 347.1867167451
40.2705222451 81.9689101119 397.9356586615
65.3767330357 29.6572642782 330.6027455701
-69.3752228364 -47.4463541725 344.2225254863
-79.5385785439 -2.9889972365 414.4427016119
28.0496557702 4.8067814697 325.1649731894
-97.8822605925 -97.1753538143 281.5710352833
-26.1539600211 -13.9983814509 367.8896764696
55.8803827758 61.4396744421 366.2965366200
35.2033812975 -66.5818018155 237.9027011870
-107.5047852089 -65.7083858939 345.8463348127
-114.5511392584 -42.8153182159 388.3794291239
-33.1955595933 -27.4867630225 375.9920680584
-52.9710857181 -56.5022436482 319.7468564352
13.6941446096 -64.2386958411 334.5712179810
79.5486868711 50.1037323286 333.1576642332
-42.2367279749 -48.2246548127 320.5061362469
-96.9301681175 -30.6726704627 396.5833187836
-24.3604774795 1.8424191019 366.5486729296
-34.8890766775 -45.8229613568 337.8916921906
81.1728256542 -8.3815184126 258.3640844859
-3.9570832799 -25.2601101522 389.8749445778
49.3507247140 -10.3356558505 368.2182116061
8.8197912894 65.8364164691 411.3488686472
-22.9515574834 -40.9262602890 359.7590062692
43.5772156983 -55.3923858938 211.2806834737
36.9171735397 -0.0179945696 384.6785818634
-18.4145350916 -42.0090188665 387.9035557662
-11.0486988941 82.3079598578 429.6053078995
-49.6233340633 -12.1831754119 377.9383889622
-108.9672855262 -50.3865529310 377.4008058184
4.9717468672 -75.8713265905 239.9471074275
40.9822888798 -33.9416019583 334.1370765787
99.4257785016 14.2943397592 268.4530834221
34.2491306482 50.4484126401 371.6267599225
103.9695926866 13.5143072742 262.7413732231
-32.6216145740 42.5751947630 418.8893901395
-9.0607974479 -50.8461596357 333.9534805677
27.9757300824 80.9525345916 414.4668972069
-93.9583208273 -13.4966005545 404.9342172299
-45.3670955927 -60.8633563489 308.2351270025
2.2406266293 38.2481863870 393.9997990482
20.9461192464 87.7708032772 413.6583124473
-17.4547078865 34.1266033384 405.2839146789
28.4886598529 -71.8361913510 228.2917516374
84.0979239175 -21.6312858584 221.6358122194
26.5409340265 45.9622572370 372.8662328598
-98.7983007266 -70.0115050952 341.8838487855
-67.4209580285 -90.0938291829 287.7790678383
-26.3550483370 34.8672922736 425.0640327798
-99.9921826641 -25.0947872170 395.9425589678
-118.9803509154 -26.9173402084 396.8082504294
-70.0306347907 -107.0070561710 265.6613460851
-22.2862306297 -43.3674099712 353.1998936288
-110.1839669888 6.8427536231 423.7945953722
-91.2231806111 -95.1771388820 299.2198022552
30.1004709974 -32.2714191396 287.2670767106
-19.6517118182 -64.3486868453 347.7138728306
-30.9106364364 24.0251742981 395.6090424445
-29.2264358977 42.2846370104 430.5777043081
0.6567870045 -36.4389838155 314.9401636376
95.6786463091 35.2868809821 282.2192649423
69.2529121585 -31.4033832531 262.0350535735
6.2325524807 87.0287284987 422.5163689721
15.6177975503 41.7699710812 377.2222287942
33.9355340175 14.2859505923 365.7390640511
6.2150996815 14.5561702930 365.4538769461
47.9834610744 45.8450708942 364.4161297008
12.1370846266 -31.9060434459 317.9191974233
-20.9121284786 -68.3060429599 287.7763414918
-51.6264674052 -105.7766381032 261.2128154603
54.9151483914 -44.1276090677 238.8970692180
-116.4036963533 -48.9765741615 382.4380527392
14.1783374486 -1.1327829387 364.4229070368
-27.8661026710 37.1717390408 408.4849766602
3.3749010933 -85.1180005603 233.2958201628
-111.8974340338 -32.9640723481 388.9225612456
-42.5887685766 -76.8597411624 295.8105745824
62.0675693794 -42.4938689564 248.4798209755
27.3618872114 -32.4844872616 280.6347607356
91.1013432343 57.8666054168 331.2326621750
-29.0355210890 28.0602442350 419.5455109167
40.8034670614 -12.2279575633 293.0771334091
-23.4168102555 -60.9224247694 349.2728547145
-37.0038827838 -32.8776664082 367.0000309807
-41.6868250976 4.5096260659 381.8272345149
-90.4266653784 -74.0308605655 330.7198215912
-9.4961945620 35.2764152700 400.0963271367
-90.3465845194 32.2097321462 430.9882932683
-30.2308661586 -30.9018665785 379.2382724566
-79.5508619668 -87.0851874711 302.9869050139
-69.1939831293 -37.6307030236 364.5560185955
-23.8856636708 -21.6943923412 387.0823860460
80.9786742906 26.3027326800 304.3011477855
-104.8172317937 3.9283456671 425.5707525244
-35.6273476172 -94.0654538793 235.0088252822
39.4726815185 -64.8502150537 227.1431440674
21.5112791481 -35.3065636061 301.2368135714
-104.8918512361 -94.4897602117 291.2919006341
-2.7149935337 25.2147970975 382.2234254892
21.8285864697 -6.7667783754 395.5868865418
71.5892041949 36.1930337492 344.4855599439
65.2880528621 -12.5994807136 272.2476810324
-15.7419524051 -52.4681263290 367.9352187105
-45.8569968990 -8.9723983428 369.8433977620
4.5038114252 1.6876434494 364.1234318176
-77.1924963981 18.2056577472 430.2854385401
-27.7779065151 16.8247041194 401.5242809949
78.5437149393 40.2251061938 343.3945557371
23.2991641523 -65.2165368660 245.8873352556
-10.5408490672 -35.2151144562 333.1455844712
-88.1184480351 -88.9468870089 316.0882252280
-56.7166688638 -83.3917788275 291.2927652313
-62.7666727512 49.6928937839 437.5953309318
46.1968298144 -28.9089261978 278.2776410160
32.3589847424 17.0777650332 334.1215382296
-35.1242097524 -19.6272359004 351.7647126275
-76.1690449153 3.4864465083 419.3029431143
55.7982835127 -9.3215945834 363.2042844351
-19.5807611166 -40.9660715182 333.9453531106
-85.0432603633 -53.9904886929 349.6834253258
90.4725119239 22.5769172009 307.5029021367
-23.3543457725 -66.3436858848 283.3656029404
-21.5198645699 64.0517131327 427.8424648234
77.9699838453 78.4021128925 367.5445145494
18.8595927821 -59.5723756887 264.6681407587
-103.3414745615 -45.7773348337 383.2667230647
-111.5876029911 -60.5163135892 365.5582026749
13.8433418264 91.8998913823 423.3397006178
-63.0327453050 -98.5998638722 273.8303171808
-32.6623863761 -34.3933770394 374.3587341958
-72.1879430080 42.1747674378 441.2482420811
-26.3480128931 21.4714167011 388.7967601687
-17.4355147563 -92.4639628501 230.5319751506
67.8488214850 22.6039530769 311.0082001152
40.8689171882 -44.7397938812 255.2641087118
68.5963069552 15.8765229595 302.5853705205
-38.7788330334 -65.6688269494 305.8471413493
-40.2771719766 -43.0892876051 344.6315737913
-50.0120568174 -7.4320979847 374.9533491474
81.5034895416 41.7517171745 331.7851159343
38.3419396152 -45.7518391356 333.3178008325
61.7121765522 51.9564126261 350.2832666539
22.7648317260 -61.5129127093 250.7407378097
-57.2408106209 -94.7327886468 287.0143864984
5.1984265679 -14.7895614813 400.1009710074
37.3523407977 -21.3245550047 311.0652330476
43.8769615344 -14.7521887813 287.5632455277
30.4936608339 -3.1974233357 325.6628411132
100.3137174590 10.9034088108 262.7187554788
22.0055045927 -7.8683231510 384.6298772468
-65.1643977636 -73.8434241317 309.6438973890
99.9651313798 -8.4882721848 257.3055850244
-32.2282453548 -22.3739483958 356.4170371312
-61.6271486083 -71.5409330281 309.5666606813
101.4122090624 43.9354769496 291.3735701801
3.8157307982 -42.9088392057 296.2201751148
-27.1776602994 -50.8779344430 304.6856277246
66.9552445198 -28.5692604693 267.1138871370
-4.6408747684 -92.6900229171 223.0550667623
6.8782322068 -28.2636842765 302.6147140484
-54.2037753791 36.7053534247 436.1160923985
-17.9767766935 -38.5408722137 376.4670649073
56.4833803935 -48.6465474783 213.5768102660
8.7451871542 -59.0472300431 265.1540670880
-119.3130226588 -22.3223652475 406.6852884548
-85.4324215480 -97.5324154814 291.5132715650
-4.0525119286 -74.6634277411 257.5889767998
-64.4433085144 -43.8153542242 344.3791664905
-12.6476872618 -37.1567685590 384.6586542459
-49.8623725249 -90.4116765455 287.9883071551
-3.4027364122 -71.1861795692 340.7407115464
-62.6357662145 -58.6583291093 325.2725028110
78.4890939192 15.0967384384 303.7495285043
-128.8538322567 -61.7435080985 363.1299989757
23.5228689004 -42.7172446331 271.9229774599
21.1646781872 64.9597765838 409.7692687103
-89.4347032744 -25.9472179480 395.6073497197
-63.5617790743 -63.4122479784 339.3524347856
70.4655064384 -45.6692376036 235.6572869143
10.8789406372 9.4625961482 367.8707020715
67.1856001648 62.8232196186 358.3701933061
98.7249087050 49.7574758682 324.5117965842
-88.9952888516 -75.2560136043 328.0665759187
-67.2885324917 -68.7049205131 326.2424529813
70.2179764744 86.1912635656 368.3047344465
48.9791332095 -0.5398950272 341.3530351558
70.3345412144 39.6048875795 328.6886097454
-39.8765353020 32.9280434791 424.8350986885
-35.2312827051 47.8479408420 427.4130919378
33.9758721349 55.2718773051 387.4850291601
10.6832992533 28.6859216995 375.1895472409
-113.4471918676 -33.8481682399 389.4638850428
95.5649494021 32.8418226743 291.7134097988
17.4074521265 -80.5893506326 236.6428841799
54.6858187027 47.4785897471 350.9334242906
-15.3515612182 62.9923812849 433.5497091120
77.2007825681 36.4471326353 340.1854442394
-72.8291745539 -104.9707048173 279.9325416720
-30.2438084295 -11.9833352188 362.8635762899
19.5955875634 -36.6565802686 318.3880084840
-16.6166322848 -36.3254228018 378.9089425001
-41.5203186802 -86.1839891083 275.3189442027
27.4581730040 -13.5761177874 302.4533185560
-119.7858569499 -60.6591029501 361.1811794787
-52.1921630985 -69.5183087101 312.4784791026
53.6967954817 -16.5969582618 357.1183579496
98.0918124656 14.3356542924 284.9120689077
-13.3122279105 -92.6508924247 234.9920410433
-88.9231954485 -88.2690153910 317.8154276389
39.2493840670 -45.1168622567 319.5394290543
15.2067657261 -79.9098804246 226.9561253560
-36.4092233131 67.4069966045 441.7391708193
46.7086078485 83.3669109046 390.9806047082
-64.5044028362 -0.8165371626 404.0303283595
-69.7536840775 4.5443466298 414.9810141055
-75.1042835255 39.5917710314 440.7178915009
27.2405001795 -50.6637353360 330.9132223258
-95.1090612093 -16.1151487854 410.5439678899
-28.7238734169 65.6950907924 439.2306582350
-51.3886427131 -97.6335108225 273.9129003335
-22.9037243139 -33.2290365047 357.7307467347
54.9307569676 -9.8492213479 348.1373693013
28.0567338945 50.2598600362 386.5532969007
28.9620007542 94.6254976226 407.3748611615
-115.3684240480 -53.5626057566 376.7860619560
29.2464174077 92.1122193392 408.5702713470
4.9695923958 -35.7879714862 295.4044089463
96.2941891212 12.6912448840 285.2682994630
25.1537878738 -57.2924830112 253.6386239925
69.6555277121 58.2250822995 360.7402960231
-10.8040020127 -60.5513402158 288.4226628204
-53.1261301393 23.2748456521 423.0480425771
-46.5186812280 28.5998261036 414.1485717737
26.5391644907 -41.9259522360 289.6658005625
-5.6917428534 39.5245414371 402.0995779081
-40.1385261695 -55.3260150662 310.3544379894
-48.1429849165 -24.9587825792 361.5607020962
-35.4197004019 -89.6466975260 257.3782189795
41.5978199474 -70.1144857627 225.2709512926
90.3977456896 67.5520317894 329.2129624901
49.8431631749 69.6103907462 381.0043249919
90.7080149041 14.1968372501 281.8746738996
-22.6700335162 -66.8177928186 291.0069616810
-16.5333238813 -41.1896080720 326.7328302150
-54.6739077394 -106.9280923575 258.5593170350
-124.4346607957 -18.7572798146 398.9026118356
-16.9512431412 -68.0703314018 351.4718648466
22.8730183044 68.4211671527 412.4513428505
-42.7605661149 -99.7167933818 254.3154767525
-64.5770636219 -105.5462926669 253.7971780415
-51.7834666252 -36.8392006205 342.0234902395
69.5908409579 79.0584260045 379.2432531595
-16.4750989373 -83.5606521144 257.8607668868
83.1948250075 -21.5685912565 246.6632252579
-44.4551239571 -38.6346696643 333.7191839338
-44.2947077565 -78.2754971157 295.5782083084
-97.9710742843 -93.9839124132 314.9159090207
-90.5180381736 -95.7575782950 280.2317943589
62.6321352976 80.5424803340 386.8977403653
-48.7800118829 -26.4082264776 351.8040224513
-25.4331859721 -59.0255665921 352.6608859208
32.5396897531 -75.9413453730 222.9590613883
-7.4046095861 19.5711419608 370.7508121499
15.4508611757 -85.7974337969 227.4298766078
-43.0587050086 -104.0390893885 240.4129218365
21.5375448150 -67.4117195351 253.3540756057
-6.0528911645 -66.2247947668 277.9031311672
-53.7836995474 -42.6979220209 346.7982235524
21.8993657902 -55.3371728238 331.4428354045
-12.2672643670 43.0961853568 402.3312918881
-10.8777934341 19.7643898292 382.8007689276
14.5919250766 65.5057599495 415.9501900266
8.4229363542 -54.6515742862 278.9940349784
-64.5898992298 -17.1727619252 384.7332445015
-31.4621567786 -31.3085472908 338.8304340452
77.3780537491 85.5473414553 367.5040111051
16.3767664123 88.9428141757 422.6765186011
-5.4755211883 32.3468073961 393.3198605450
55.8054859428 3.0835312519 307.7534430516
90.8176681555 22.2938998279 275.5735215409
0.0667910273 -88.5072793703 241.2621053367
-39.8404408571 37.2025467058 418.7125014941
22.2998291466 6.5403649255 385.5062508417
-12.4000696524 61.6509533011 424.3667802910
71.7941216122 27.1369631211 312.9715111776
-82.6211474764 -90.9279544172 310.7219021941
87.8184331481 65.1483332666 333.8800617554
89.1099005177 7.8814500222 275.8883330645
49.8193537573 53.8276184120 362.4471042465
-13.4711694774 -40.2383759846 329.7035610871
-22.9470525784 -54.8205297893 296.4827242084
11.1343577629 -79.9309222704 221.2708323829
88.1587637687 12.1413369457 261.4944571906
37.1893625932 77.7395932661 401.0456560847
-125.8055062639 -35.7703353364 384.4414740769
-115.9082655005 -73.6833651794 342.7501986072
-33.4797046709 -86.5730940672 268.1907440565
-56.8770074483 -3.6002925804 394.2191198126
-22.7020866653 -43.9939719977 309.0953585154
78.7750528935 20.5199811141 309.0935093515
-7.1419905460 -29.7673781540 392.8984245737
-19.0316955617 -58.1283841125 330.4497156775
43.1810559964 -64.2691855821 235.4977778848
-95.2542487987 -40.9915451794 382.7892820783
52.1231344554 -32.8579036394 259.7179666001
81.9749136290 39.1027711288 336.0924909577
-27.9363357785 5.8110672939 372.0382646699
100.4434009845 24.4084838321 296.4765787391
110.5809596841 19.4505420111 264.5088852649
19.1531391115 -27.0152748197 293.6971582760
59.8853607770 53.1920549429 353.2524648910
-96.7821083910 -93.1541082938 285.8166946028
23.8529224627 -70.5271778342 210.9972576518
14.2241396776 19.3341427785 375.2025414946
-14.9370243769 -98.6178637840 237.4878013917
-82.8645080482 -99.7426199268 277.8824091045
67.9861459304 -28.7202548992 244.8078025731
26.9521668517 72.5549004031 413.6119690435
-67.4673700063 -13.2264551831 382.5970210030
-40.3725836708 -80.2520451646 289.8915169231
5.3453843399 -84.0571506339 232.9478556363
39.0540427632 -8.4075525987 371.1889749734
-16.1992630482 -87.7761359769 225.6155984769
12.9501739976 -84.6954746615 218.8496134302
42.7163518803 13.6055181271 321.3658832959
-110.1415325891 -68.5669876277 346.8951429072
-63.6770246496 -2.0901723991 401.8142775938
20.7852100579 -26.6227245050 292.8002497612
50.7617287957 -2.7565355904 344.9626913300
74.3236797224 73.5996241308 373.0129546415
37.1256562184 -40.7934366731 316.2381387972
-5.2844161884 -45.7011897301 300.5251942489
90.0159140402 -26.9078141495 228.5848636257
69.5220208777 7.7927787489 292.4217824366
46.6167051575 -2.5349830844 299.3716527780
-57.6671531237 36.6792425080 436.1587513256
5.1869762265 68.2794231555 425.8262499385
-76.8068132856 -25.9312397709 384.7087175066
96.1180172463 4.9059742542 272.4057809424
-102.8066422171 19.0325499692 425.1380124225
3.8722893345 24.4278148744 366.9406427910
-10.8617216077 -22.3686634811 397.4847370354
89.6536142270 23.0236552172 293.1422474324
-55.5314516974 37.7394302872 430.4324902395
19.5201364951 -52.4274879120 329.0988785693
-53.7830346008 -26.2203673989 356.1741421321
-52.5046130516 -0.3117449048 385.1550195632
-15.8494888097 40.0960846829 411.2069480261
34.8872302190 -67.5529246281 228.6160709313
72.9254668237 36.9215428568 323.3940109052
43.2165117625 73.5490296969 391.2335665979
-4.8237190418 -80.2011635486 251.6983520533
1.9280807420 90.0722687211 423.0136882770
-68.0905678700 -7.1688181724 399.5281616997
-74.9607692404 -78.1915098749 312.7866694734
-10.8026063351 -15.0096298667 395.1218819360
7.4054207073 -77.8944421144 218.4354777285
33.1238080711 40.2702861050 370.4100328424
-83.1009957216 -55.4204965926 346.3651151034
74.8853094895 40.5814072028 326.0340474523
52.1396546541 75.2431831049 395.3454232458
94.2112054245 50.5169608762 307.7997797924
1.1316155777 -66.2767605249 271.8952762018
-38.5558117238 -42.0756726759 345.9399917263
46.8690996816 -59.5499123826 225.1159128778
-39.6945020976 -99.8366856045 246.6838103215
-93.3486605100 -76.2219478334 330.3648338218
-89.2728813861 -21.8358584681 400.4240150922
100.2543540631 60.1285932862 317.0252318546
-10.9114785792 -82.1510603286 245.3205457791
-100.9231118001 -83.1367119100 322.8887404912
-70.7003826142 12.8958151260 416.2831497354
95.8412646187 44.5520814132 306.6613203012
-7.8407153057 -88.5545472202 239.5415597435
-0.0221330468 -2.9224258205 374.2775689867
29.7760827471 -28.5182521133 291.7879832468
-87.8407388258 -104.1207165590 284.7680964884
43.8685742015 -10.1219313124 292.8951408609
-48.0590930940 -18.7705654347 360.3545611508
-90.8174673238 7.6696370808 416.4142119019
89.1562053092 40.9603434686 324.1563218454
51.5712658275 57.1845163706 374.7943839900
-62.3708405330 -0.6087048055 393.1218493616
-106.4594432461 -36.4137638346 382.7140721145
-4.4355434435 -94.8769399476 232.7347906055
-81.7128432550 -20.8232144197 395.0096554938
-22.5917232580 -32.6015136803 370.1776977994
90.1265543913 39.3751574386 311.7099809155
69.7432640993 -46.9916112559 232.8278274848
22.5205743735 -2.9487371429 355.2149083735
-131.5555756810 -53.8848778871 363.8849738883
16.9042231593 -41.2887626091 319.9991266566
85.3885950270 -14.3285217099 260.6021966408
42.1489904978 -67.9908867870 231.6126586285
-87.6805238744 -52.2697011990 362.8678755420
21.6588644879 -12.2503262761 309.6965252223
102.9803039135 14.1706793234 252.3339415044
32.8868947678 -18.9079556231 300.2383994087
63.4364824944 85.7353090436 374.6904906738
-103.8888446035 -19.2229253246 407.3111638176
-12.3084714987 -56.5305160548 294.3962652587
-104.9280662441 -90.4344945633 309.2373913119
-5.2253592901 -5.1681402561 365.7806157384
98.5645162878 -10.1313915580 250.4741859857
-22.3730582930 -12.8974151697 369.5106233692
-25.9404480436 -78.1724299610 280.2246560771
98.9899350564 7.3659616577 254.1618712721
-122.5814556544 -39.0716158837 392.3764544451
-21.8521294732 -57.2254340910 372.8511761490
38.3351858694 -68.2960282978 214.3916987334
-6.0885321930 51.8670270249 417.1456225516
-98.4442301592 -18.4057839979 401.5419853667
-15.4356274844 -40.5474412005 324.7243455526
-74.1597490682 7.2625119085 412.5967074069
-96.8079811032 16.0448361723 426.3339661457
87.0384710981 56.2500003315 345.2499514214
35.2865247713 17.5139707861 355.6860210229
-22.3225103551 44.8875698633 422.3294857667
16.2929468680 -58.2184843737 332.7789523128
-24.0108181372 -58.6016411127 370.3256522063
59.4380698475 -7.0736956217 283.5524965592
28.0479638444 88.8485410202 415.5182715380
32.1465472772 50.5847297833 383.5076733410
-48.1853829867 -68.9901552880 301.0204138302
95.0756106725 45.3474381621 304.5868085754
-107.7977384715 -57.7762092253 368.6799923828
31.3879394538 1.1690550278 316.4571664325
-58.9457068238 -107.0256817361 262.7616749482
-90.8048605105 -4.9308099110 418.4345189254
-92.7720829030 -79.1644527607 324.1354174837
60.7139800667 80.8662627523 378.2801285584
-39.3447056727 -44.8697695871 341.7759852092
72.9293670847 -11.7181684121 282.0591094507
-77.0960343355 11.6197675807 420.2164470510
-17.8633455024 -54.8496161479 292.1830467097
32.5488194819 1.8419501815 385.5690413202
75.1131728020 -16.4522685374 259.4814356624
-58.9473030144 -42.0415075097 341.9005745260
0.2507033688 4.3527540400 389.0810623114
-105.9722120185 -35.7295887138 393.3346346898
-67.4264089782 1.9552417677 400.4369182618
21.9593786147 -13.7883236745 313.3287474312
-13.4101701648 10.9598261202 367.9144921400
-3.7999505978 -90.0077006033 242.6946374425
-82.1209756678 -84.6548070450 311.1202973210
72.3094247055 52.7570851143 351.8514667933
-60.8901653208 -6.5287347622 384.8828763442
50.4036690646 44.7413860905 351.3395324317
16.8244373932 21.4533328498 353.0618740327
-105.0996203666 -58.4733474368 368.4011308126
-21.2238945962 -85.4648265394 270.6520218510
102.7993095005 56.1172379023 303.2705393787
-40.5485566447 -103.1327811592 238.0198540321
-43.3071723388 -91.4368522418 279.3176601112
-72.7326675042 -66.5023421291 335.8574510999
52.6114349202 -15.1822233831 334.2314109905
-49.3012867785 -73.2066854553 305.7256448078
93.5319084086 41.8301842245 311.6722379612
-31.4329890411 -34.4356094417 327.8046462688
-30.1426527841 46.3774930417 421.3260609773
-31.6613044066 75.3697133014 440.0316926971
0.4882376459 -46.9824387781 286.0209410125
-28.2273819941 -54.6756248142 343.6298556491
-79.7446623764 -98.6728111228 286.1817370022
24.6166410446 71.3840404201 404.4817809815
-74.3200822977 -6.3389150574 405.8732916410
-85.8395113819 -23.3764640753 386.3180055202
-81.9561522627 28.5510241635 432.1793615192
-17.3070899843 83.4831389428 435.7339723005
27.8129192274 -29.8724671994 291.7985633283
93.6915062066 24.0123831183 305.5437319173
38.3631461081 2.6674073636 379.3598715776
97.2834509651 70.7415440433 327.2703292560
-69.4288654789 -46.1401756515 345.8110816881
-14.4442724960 -62.8077486326 280.0409438382
-107.1642593051 -55.0770984254 360.1255383171
66.6892657103 -31.8744753474 264.9747170848
18.0600373598 -49.9217868003 286.1933956908
-16.2223967415 -11.6035798665 390.7733934360
-33.5552746423 -8.1466816891 361.2770357722
-63.1669556704 -83.7561313372 296.3040041303
60.0070068542 15.7130171923 319.0425808710
-47.2399803300 -34.3827083877 349.9126803227
27.0347996905 66.5178092100 396.6899354631
-16.1569316157 47.7867760265 411.1129071517
-101.2085810090 -8.8659832927 416.6414328567
13.9268352234 22.3815843713 356.3700759565
100.7628193096 8.4513972046 254.0966261847
-40.8988261824 -46.3351439541 329.8495714761
43.4063605197 6.4935002422 332.1313063938
33.9378929333 -13.8389761075 332.6531386346
-46.9429950991 -57.6505137248 313.3224294156
-114.4483378917 -40.8688809185 382.2415790532
-13.3613107239 21.0045611547 377.4429327626
-24.5223619856 -13.1727178254 369.5008420731
12.8464665276 51.1916194766 390.6948095571
27.8142193336 -0.6363389297 341.6645855406
7.2611548219 -50.1415817618 310.0309684555
-13.6785918046 -56.4546400514 286.7890649497
-78.9391773909 -100.7876695048 277.6949625380
18.0386633037 -4.0254545192 396.2593228249
-17.9579903219 56.1512710458 422.5425337343
-19.9414842343 -58.7569698101 298.1864017114
-43.0141451643 -23.9612481790 349.9967767707
85.6708578386 44.4861908918 331.3733386789
-80.8291225474 -21.6132054744 384.0795550378
-61.6658563367 45.5303219033 435.9744764377
-111.8607996922 -44.1842425595 375.0124587896
-85.9966891416 -41.5712757916 374.1132592951
60.1364670765 89.0710902339 380.7121217139
73.9924005044 84.0784029451 371.6192343208
-67.8745788224 -22.5644975987 371.9567906150
29.7161057315 -71.1149702660 222.6013620534
-24.8505057012 -44.1872018982 310.6788912465
-128.5725760715 -67.3167422353 354.4654860869
46.4665910477 18.0985139303 343.9377632041
27.3295517480 -10.8015606597 341.7169442347
64.8502728740 73.8923028908 373.3406465883
-28.4011174506 48.0285074572 421.8174407153
-62.8002849809 -47.2886424040 338.9407800807
-94.4882353389 -101.8405356168 283.9953224423
45.9665523752 -59.1264520522 221.4886712671
-8.6528114981 -81.8506507239 252.9246143474
-55.9582668519 -101.1769756860 262.9994887948
79.3238548956 -0.8431639545 253.1817084779
87.0167277513 57.2533066221 335.1884354038
-55.9241629936 -83.5451697462 299.2135559678
-0.8931055909 -85.4181467952 245.2719260253
55.0343121636 -32.8923910803 336.7811949951
20.7450356895 16.0958857477 375.7439876983
90.4089380416 -9.7702874077 258.0135631110
-8.1394227209 -57.4145747033 343.4783830132
-57.4829211286 49.7210970640 442.4385134645
-28.8895502914 -94.7159343440 257.6379858433
55.4820818455 91.8770187107 386.0117764266
35.6290682319 -59.6122650224 214.9478988476
57.7759374503 -15.1994880204 284.7790215875
42.1599720429 -54.6052033796 215.2901909479
18.5734093740 -8.4497384722 396.3339561505
-64.8929168967 -5.7927205377 389.1290020632
57.6411220928 23.2935956519 329.3644709972
72.8050322288 93.6429959763 370.9777653670
30.5310731483 -13.7794358712 335.5957221694
49.4993840440 83.0319557350 388.6979235923
67.5904761422 -4.0608246633 280.2043625244
63.9012847926 -39.7125606331 239.5750233373
-90.5921353531 25.9881141300 430.1914181195
29.3738576960 -24.9794961401 305.0738878987
6.9852792789 -43.3197643876 293.1671192958
97.5578866259 -8.6118488769 257.5815927834
-130.7228100697 -52.2002637421 365.0577479595
-107.6214201293 -52.0320708050 364.0478530158
-62.4121821036 54.4156278308 442.2751316145
-12.7704531829 43.5879457255 412.8402877691
48.8451539011 57.8718964049 368.0188879163
-9.4474646539 -44.5547923209 332.9699135039
6.5456673511 -46.8913206672 289.4259725084
-59.3347038848 -56.0638759644 325.5748582802
-6.0734583794 49.3413468204 414.1056776534
-92.2951797640 -36.5460662857 385.4838507165
89.7685982561 60.0336931939 334.9349692486
-122.6052695315 -21.3591946016 396.9885066192
-21.8240530009 -42.4874687107 345.8602408642
72.5979601924 19.8344733675 313.5220035059
98.5403535911 15.3254832528 256.4756550261
5.8297173403 -30.4734481797 324.8295432671
-62.5894205656 33.1633348688 435.3216286156
90.1984465817 50.0521271683 345.1224630209
-10.3738515351 -30.7306945825 394.4821601196
82.0626765535 56.2374195167 347.8665065731
29.9829437922 38.0710819502 360.6723091592
44.9473995628 12.3537553968 318.0331454430
7.4595571627 71.1676936037 418.6275019214
36.3315264320 47.5260221137 366.4433267513
-22.3641995252 30.0583605654 395.5355075903
-28.2712200248 -72.7874533746 288.6134053233
80.2433521575 43.1958529164 345.3675465843
35.2389165206 -67.8649694921 224.3043354579
-27.4477445641 -64.4010244916 297.7864684602
-23.1564587345 -91.3165542289 229.5192043116
47.8344926060 8.5546479986 320.2370237289
94.4719732866 20.4242028811 302.7223283193
-3.6324221447 50.6239439438 413.5985861926
-24.2205357441 69.8202494924 432.5214330051
-14.0096053847 8.3706979352 369.0246442859
-43.7012834133 -73.5207471364 291.9507425235
-95.5608727594 -69.0760353386 349.4560779235
-45.7560323677 53.5908345054 431.8108897193
87.0912137634 79.5368484521 351.7531194952
-53.5851841342 -47.0644925417 348.3500453120
61.5234595106 76.2794441491 387.4798236318
4.6233954883 26.1892366774 377.1702083744
63.5152382151 -52.1271590923 232.3428971660
36.1808168586 -54.2656738163 261.6707235189
-35.8111262502 -35.2961767478 367.7996293436
43.6501443019 36.4785118162 347.3536193924
-15.6799683057 29.6294755494 389.4196757673
61.8997179646 78.0854472253 387.6466954192
59.6081521862 58.1647111002 359.3053018494
53.0526878069 -4.9909889984 357.5890135512
-77.9125038298 -87.7558568428 312.8302941086
-96.1270373718 -91.2875856872 308.6791094687
-101.8339344840 -62.9946373614 352.7918046654
7.5270497264 60.5539028078 406.1678355643
-68.6535211448 -79.0400771663 315.2018073220
-62.6570729499 -69.1530678530 313.0222454184
15.2334348161 -0.6392987002 379.7688682325
34.0686648405 65.6421534501 399.6222201386
7.1696780223 -70.7391373742 261.5171756774
-77.9475597101 -97.8055811503 286.6520800807
-5.1882649245 -92.1984753298 241.3896517814
-26.7994955509 75.4605442225 434.2738302589
5.2302165767 -54.1241343166 273.7984438513
-12.9854347210 29.3613360222 395.8601814718
-65.1247752904 -101.5604247471 249.1175202456
37.9350881533 -5.0689697427 343.5322849985
-122.0499646615 -72.4134493251 334.1037856471
23.4322975357 -57.7141701090 254.5851054889
-10.9601407702 -69.2599298955 341.3329377840
-55.2837149413 15.5045439301 406.0920100377
-16.2624766532 -97.5911748190 243.4138266980
61.1163073876 -31.1556992039 254.1729492840
34.1377232578 -1.9885107361 367.1090482400
-27.5828358341 -60.6357728854 293.5860275907
-10.2461591267 34.6562153167 390.7024584035
-63.0667229416 -88.7094942122 290.4514384429
-100.0052671720 -47.9273315853 369.5606897883
72.6569615556 -5.0191454108 274.8099718525
27.0171737557 -48.2462911265 262.5762571721
-16.2596250493 -42.3876526481 378.8987213273
-33.9481130898 24.1390842808 408.9944470826
28.5046465431 -2.3063123753 315.1432579991
94.1376387218 30.4111920928 286.4274453843
-19.9211709713 -92.2566166922 245.2938835781
-56.9096593251 39.1023992934 429.7983950137
-114.0089273832 -32.8333338328 390.9927980080
23.8711888870 -62.2251691744 248.9593027461
-86.4025325283 23.7514812589 430.3829800959
95.8285054251 8.9948632643 280.9838198880
23.9566711931 -31.0494512958 293.6538905619
8.9588732896 38.0463027001 378.4818515378
46.4130932797 18.4111051900 323.8680622395
49.2522067771 -41.2002878892 331.8100375360
61.7481976106 50.3995607538 348.4359164404
-31.3472569550 -57.5937680707 300.2991862686
-6.9511562731 24.4226075309 376.0694903292
-69.1732713972 -3.9567107588 394.9027487375
-24.4561752933 -46.4269774478 307.6805228123
20.9192012223 8.8984434394 383.5462482070
80.2425607435 40.7827985906 342.6139738664
-29.7051830449 -56.8079390945 299.8428018552
37.8425559600 -66.1611585115 236.8713760897
-65.0001373684 0.8533200858 397.0252370102
-8.7802060314 28.6834522758 382.4781830194
-66.5049051518 -74.7803594253 318.4197709847
-44.0356444242 -62.0797105825 305.6857903611
77.0079588620 17.7050489424 297.6523060731
30.7747342164 1.4721516950 387.1186327849
96.5402403991 51.4081538956 329.3985175153
45.7032076482 -13.5703927152 321.8966535031
-126.4174434677 -70.5541820728 351.8505337075
-42.4430356299 -40.3689803619 330.0128911092
-39.4693774929 -98.9907192259 261.5939106673
-72.9949318912 6.7480207165 420.4653263832
-95.3436816686 9.6595801989 423.2101323943
-70.4543106052 -57.7101112955 333.1437849756
-101.9804762528 11.6886247632 429.1044357486
94.8546465679 60.3711154467 338.1548860358
49.5347462129 -12.5291394613 285.4715954892
102.3524035846 48.7809828305 302.5200715596
-26.7303848910 51.1876950175 424.1229020743
60.4954506780 48.2875636913 356.6339993851
-33.1051337166 -69.7263836294 287.5206710849
-121.0379121308 -38.1299814179 393.7098646549
55.6245619870 38.6267847019 349.2013163373
-13.0372164889 -73.1750984963 275.4621240186
26.3195826199 6.9433001029 383.2270361457
-56.8833257704 61.9826236625 438.0999484972
32.0067113836 -47.3191407979 270.8843892873
-65.3980956975 15.1925885953 414.4161710761
-26.0605928992 -57.8483182537 348.9630216401
-53.9437573637 10.2123521014 408.0990446380
-1.9005099260 -57.1174773489 276.2173629498
91.1637399487 -17.9472720495 253.6521377288
84.1077575842 78.5938486811 356.3667139922
-35.9729693158 -45.0845057048 328.8266418837
6.0865103157 -64.4536052326 339.3043331054
29.8905402618 43.0979550083 376.5404465636
-8.5346752219 -35.8159840044 306.8091965728
78.5472244999 -13.9082908086 277.1162631904
57.0284126874 -53.1632650036 215.7775159657
25.9854775767 -79.3738407079 229.4425915992
-18.8629160316 -63.9203389983 282.4545749016
-47.9263283642 -56.9527337251 314.9684910567
35.6200853073 -6.8346586730 376.3313390734
-30.3520561976 -32.6050147259 378.6409898509
39.9418867812 -68.2745161078 215.7250476901
43.7319147001 -50.7066157710 238.2075145094
16.2845258139 -73.4829475266 212.3641076281
-71.0126293832 18.9422492744 430.8719384928
76.8589075166 75.3363125979 355.3728669303
-76.6877005437 -101.2739570532 289.9701427279
-94.5375878600 -99.3856540705 278.3123206482
11.1781109316 -9.7568537019 387.4652588030
-90.0378590535 -46.4324516238 371.8366036412
44.0419925373 7.5493557252 313.1573855980
73.2110864423 31.2108966614 316.5250076084
-28.6083276238 63.7239429300 429.2065428591
37.8967068805 -9.6412929025 309.8178029318
-103.5674954411 -4.1321310685 421.3636513359
88.8758204387 -19.5205867132 227.6262425226
-42.1632626654 43.8953602501 428.5781201692
8.4990274552 -10.6448515175 387.9092853190
-33.2984800282 -9.3953464351 360.0770978415
24.4046307969 1.3298714148 371.5301214505
82.1738565434 60.3108397801 342.8837132281
71.8918460380 11.7632094210 304.6120192846
77.7471032017 -23.2951107915 264.3477100184
47.6235299181 84.1274480333 389.4138898413
78.9982729417 44.2767241498 326.8595333122
-12.0891407788 -89.2301741740 254.7561820665
-12.6494775072 -69.4964098886 344.5272565396
-22.2513962377 -2.0600922162 369.2026359668
86.9237988378 0.6328640173 265.8951781428
-20.1823710902 -99.4043451729 243.6471224878
-93.5109492541 9.0455940549 428.9514133577
-50.2224095349 -100.3903324746 249.1791913959
-92.9282652449 -79.5196683664 340.4538780236
47.1563966774 3.6123283329 356.6093899151
-118.1611216523 -80.9978482798 319.8866632746
-87.9187435913 -84.6636411839 324.5688238279
-59.1552580253 -2.3224001389 388.3485677871
-18.8306445045 -97.8931877997 228.0584917883
-9.3929575979 -96.1287022075 238.1217464438
62.1754182170 50.2732738619 357.5940929770
-130.3280681794 -39.7753714204 385.7195399081
-101.3526577708 -61.5757717930 363.3995700442
-17.5189665299 -23.8903578966 357.6420170162
99.2508438905 37.0118970856 311.0631232654
-29.2554706737 4.4371446291 371.5662180678
52.7913926365 -4.9966963476 350.8632280928
-90.4640284137 -84.3497687514 309.8949737650
51.3470105143 1.6847318751 300.3521654709
39.4034154129 95.2454065602 399.7333923535
64.8679745202 -49.3495420442 236.5431538441
74.0273375411 63.7394816837 363.6957494110
29.8083956887 9.2509497472 378.0531762920
-32.4498856546 -59.0324629059 299.5428273326
74.1499644329 -43.1024830381 228.9735320280
7.5384636236 89.3104195245 421.2915346712
-88.5346109492 35.4720506678 436.1182685417
-25.0449110354 -31.5907304105 385.7760243819
-60.6199034556 -34.9624723948 351.5816572422
-116.2144014067 -78.1867543728 345.2366512340
21.0631762797 36.6838696642 376.2857002729
-64.1653273839 -70.4175803933 312.8079309212
101.8941362305 8.0471372652 259.9130617220
75.1525782602 84.3321754701 361.4832561088
-14.1450572449 27.0923295566 385.1789041535
37.1016698377 -36.5249397750 314.6441777239
-68.5070944276 -42.1634063989 358.5867554671
85.3821294480 68.2504686726 339.1068579554
-6.8157842807 -81.4847097578 251.6628291089
-103.8983515333 -67.0834690924 341.9540789549
-121.8479897800 -43.0432676678 381.3415768248
-73.6275492329 -82.0001934726 307.1963855502
-88.4933287394 -13.5712446297 409.6450469259
47.1264107836 48.1271869034 358.0320995331
-71.9429711288 -79.4905672586 317.4898996103
-117.0814992429 -83.9127744704 334.1892827645
-46.7202774010 -33.4355768567 341.7880977068
-33.5562396577 -90.2706313455 255.8741306994
-12.0803891882 -49.9702376962 335.9419871728
14.9798345269 64.8101393116 404.8991228249
-12.8408187612 4.4562106206 371.7204802943
72.0990514549 -8.8136622344 286.0816046006
15.4361527057 35.7634000411 370.3348195103
-98.1222676855 -81.0038452920 332.7282240812
86.4355123565 -9.2058208856 267.6795246404
-21.6665944631 -30.5283175921 359.8839457130
94.5161474725 45.1230690184 324.6948819381
-34.4405006383 16.6032273048 398.8525519080
-61.8440818230 -9.8997285233 381.7806538868
36.6935322150 -4.9706313668 368.8425791307
-8.7436120431 0.6682367739 388.8926907429
55.5575960198 -13.7097034094 288.3369112096
35.9301331586 -39.8003886146 314.9647934186
-34.9260399919 -37.1762515475 368.2807363066
-109.9445952830 -84.5797280773 323.5628636321
-19.2755383978 45.8246099588 411.4225650365
65.0103507176 -42.4786697861 236.0882305361
-90.6064152638 -102.1058976165 294.4943917044
-13.7070237122 57.0935149228 429.9088267953
-18.4751979173 -85.8098688414 254.7171286612
98.7172714120 11.5503251608 277.7222302901
-17.3241326668 -55.1755730167 323.4200596117
2.3432496384 -51.9154201405 287.3738293520
28.1544430336 -70.8234103903 219.7022824166
-64.9499183689 -97.5142535143 253.6478996128
-37.4200728931 -45.1147251980 337.8405738835
79.7807259758 73.0156090953 351.4850947788
28.2625009340 41.1383824028 365.7310091021
-68.4151804108 -93.2486037227 297.9744934045
63.2869828671 28.0112780478 321.0654317564
21.9788903397 94.1896147862 411.6933577808
4.3824507400 -34.3371778690 321.5889914455
-58.1171459324 -104.1547454177 270.9308487934
-28.8428128002 -72.4834049560 280.7369898623
-71.7412916438 44.2599910814 436.2807455811
64.9959751617 30.4402464549 343.2558792982
31.0968922890 -68.9570978719 238.4187163441
61.7904404121 58.5902275652 357.9715116595
-105.2602413236 -10.6104247903 416.7014892455
-98.3730488294 -85.2838205793 318.2525634753
-51.3738423778 -1.1589881422 383.2392542178
-105.4473807006 -71.5689437972 338.0225245531
-34.8390184549 -90.3147811961 273.5533749352
-77.8304350178 41.6621428975 434.5258300027
-118.4641741396 -86.9007380397 321.7565705450
-8.6260806707 -96.3804257321 234.8746383917
53.9847154550 43.0728414997 355.9788208089
6.6974165259 66.7066996604 414.1537816607
93.1509301957 71.6380975507 338.2675405923
-68.5305657508 6.7545388538 407.0724564844
-45.3425718392 60.2232509933 442.6398883647
-29.5260918394 -34.1349162283 379.4460339533
1.9042040126 -72.1305931527 255.5604673267
-82.2021915312 -90.3625171839 297.5230737023
-59.1775344630 -54.7851108794 346.9576430899
-117.0262634786 -41.6195938208 382.9277836200
35.0112153219 72.4903771562 396.9254748156
21.9829686437 34.1138494612 362.8367053734
-20.8241309181 77.7733775236 432.8302709125
-40.7788858020 -39.9248085741 329.1399898538
31.8372162132 69.3926484781 405.9407174314
-24.9312701672 17.8667115773 403.8620098110
63.7600649625 39.6051822598 334.1498010196
96.8676637696 28.2740558054 303.0470401700
94.6138430083 -25.5198203352 236.1629203158
-16.3054660813 -27.7769741287 357.5926780560
-0.8933260137 -92.0765863532 223.8223541865
-98.0731969510 -29.0240542404 399.3239195588
45.4924060572 97.2209451273 400.9487918447
-28.4743426234 -71.0880140513 290.8012039471
3.3327355016 -56.8136745603 316.0715850567
71.8400727306 20.5846310024 315.0583048855
-92.9807600200 -94.8049365479 282.7492898039
-72.6263077487 22.8155926671 425.6377821548
60.6518151406 -34.8097512191 259.6218944093
37.5246315338 -7.5088484978 372.0405192830
-11.9229826538 -89.8183109338 227.4092343673
-79.0815812068 3.7779838149 412.7339202255
-63.8739481587 12.8497907752 419.8274235605
53.5211934017 -37.2001286507 331.1419985313
51.1913443008 84.0894875800 385.9418267731
21.1769609787 -42.5583208552 294.0657370378
23.4694101631 -6.7244331932 394.2923003697
45.1469387547 -56.6356350786 234.3310383733
40.1752304333 -7.2288971989 348.4086135440
43.8185095476 -40.4448592916 266.6204399969
-69.7070955890 -88.0977360037 305.4480118515
-5.4517949992 -16.9905818453 386.4362192976
-4.0369501661 -38.9834345441 299.2490338029
-28.5525608513 3.4202976884 379.8073544111
-25.8096646094 -8.6823141898 367.7369026871
9.5006796984 -78.2762933601 218.9751008918
-63.4640685772 31.8481221821 428.7413646119
95.2259610121 45.4647547635 299.4103225332
72.7542117290 8.7279173889 290.8000713359
-56.9711348050 -8.9533744485 388.0019645861
-97.2792079586 -100.1343728267 299.7428563791
29.2592192324 63.6319014182 391.3942276027
-41.8257681455 -5.6513213482 378.8435958165
-24.3803979200 -40.0045410682 385.0921183260
58.6336778291 -52.5508367646 216.8907152067
21.2811311880 -73.2581391796 211.7015988511
23.4029051931 0.3868331520 346.6126541865
98.8418550972 26.3792112113 301.0683518816
48.9740359654 -30.2471596141 274.4480911841
-73.1406517445 -16.9132606570 392.3290782850
55.4333985293 -23.3977737239 268.0066887081
40.4949659504 -5.9898797203 380.8249476661
30.0105865348 -71.2565698225 224.7748162934
89.9939819571 72.5982958248 333.0918879543
-46.5249067249 43.6529592744 436.9949582661
-1.0961083938 9.9122731116 385.1444840547
-106.3610024794 -95.6377378550 296.1124576069
-0.1678518330 -2.8887374928 365.7449657600
8.6127220395 81.7801193832 418.2127682805
19.7367930054 -67.5931880378 246.0249195420
54.9716654292 -38.5422460612 250.7083656852
64.2927930134 77.0811204220 376.4676685106
80.7412077798 72.5889292290 348.7653237514
5.5614819417 21.7512589265 375.7694338878
7.8657991716 -59.4505399109 336.2379120852
-111.4852571682 -82.7208396567 327.1159295800
8.2826344583 22.8054246909 374.3165556964
8.9494279672 49.9265598226 392.4668521734
47.0066670560 68.9719051783 382.6463736134
90.1693529572 31.6744876157 312.4748904283
