18.3028861708 91.9359232103 -20.8192570114
-12.0898741321 87.0211355551 -26.3947577747
-34.6039388692 -50.1732066271 -0.7984653108
1.9975782313 5.0375624133 6.9895325704
13.3784265283 42.6246461601 31.6072151200
29.6334436366 11.8458993705 8.1212996869
-57.0693432955 72.3622330577 -22.0791998042
9.8471296525 84.8086361022 -2.1576418805
22.1190596539 72.8737014798 3.9858708617
12.6849998001 86.3859161241 -24.2612745786
40.3287337324 57.5905769986 -17.2754008712
-14.1815150514 69.4143516114 -22.4023048914
-23.1802749439 22.2815705318 9.3427924948
-20.0146229139 71.5287523608 28.4171201763
26.8524652771 -45.4620440247 24.8268210191
25.8014681307 1.6977331194 -2.1522669921
-1.5260434524 10.8220688677 -2.7476777130
14.8355625679 12.6311447343 25.5287667067
4.0014077334 19.7415046335 30.7469479196
12.1594161142 -25.7220736581 15.7456563557
60.7035101942 73.7712762984 -22.2184791277
-7.5284123349 58.7597636760 -17.5213073434
9.5487993293 67.1843753246 36.1183282832
6.5826383609 63.5706707038 -33.8648345450
-5.5720406010 63.6959440801 38.7840667506
30.3448533522 59.3025235330 -6.5772272355
-22.7502273516 -10.4617816717 7.8960519083
-6.1409615606 57.4433246791 -34.1936299142
10.4843612250 25.9884368414 30.1321021593
14.4673362453 82.0249686671 -17.7710425468
-23.8861704461 -7.5321802239 19.1752561571
-21.8442887530 38.6235390355 16.7340070190
-18.6523258836 10.6009423059 25.9798725546
26.5220235513 67.5566012784 5.5175070600
18.2012301318 -19.8428589831 6.6191121589
-48.3884509137 -49.9712289868 4.5059869045
-11.4121205487 -1.6260668006 15.0798107971
-5.9962301017 8.1035047839 27.9925129600
-28.6468985679 64.1458995128 19.9602246473
34.9138189198 47.7907379197 9.9403007604
-13.8591197760 91.4773968457 -20.4030358081
35.4515299419 55.6237106836 12.3148855874
-40.9666075694 -28.5315205607 9.7816867836
-10.7460228319 86.6001776891 1.0179829553
-14.7670394474 48.3522091320 35.4268707728
16.0172550417 18.4106008266 24.1144471296
33.6902746710 -9.4326612077 6.1722831863
-23.0771512811 17.6221984523 22.5724103669
-18.4019895591 71.4359549705 30.1387269902
-55.0360521385 55.8088955266 -32.7666109117
-4.5953151397 88.8905406422 -2.7577920047
26.7708402855 15.8547185025 10.1303008404
16.6680801164 -42.8980369493 17.6195494626
-58.0015566448 58.7138745380 -35.6561853549
43.9938452827 63.9599171660 -2.7812155791
12.2323070192 -0.0325422466 1.4493712573
-39.5167012569 -0.9196268182 12.2998571932
-45.9488022234 58.6875687515 -0.1058892460
-36.0062654989 61.9521705115 -14.2093958540
-11.2203355140 14.7246710693 27.5165624538
-24.0203729277 -27.6732491475 4.6121103182
53.4819424286 52.8627764128 -17.9405276573
36.4766970906 48.7234229615 9.9010336279
27.7439216383 -27.4559227800 26.7889725606
-30.4180503211 -0.9876247038 -2.5609277401
14.1381678203 28.8931857616 2.8247412230
-31.1567136977 46.2165270801 -3.4639688658
-45.2589741641 51.0915012354 -21.8591136870
18.0213519347 50.4024208914 -11.1966046615
28.2910616265 -12.5266842412 -0.9107261340
-4.9890674767 2.4310011288 37.2097860951
18.9204341954 -38.3678561472 13.1626258807
-29.7165977592 68.1339634957 6.9484590361
-36.5975204298 63.6338442439 -13.1830380552
51.2903493360 70.5360475931 -25.8627268823
-26.7481432652 6.5796145968 -1.3274135964
10.5268998680 67.0760920834 -16.5368683870
28.2223614083 -49.9281427853 22.9431069193
-58.3661989760 72.1496236982 -24.8161258364
28.6135195780 -36.7522020902 26.0783926143
39.0111294550 46.6847221393 3.5444437192
25.8137049767 68.1431863782 15.3758641883
23.1014851507 54.8653355045 -7.1008881203
-24.6388100978 72.8632951126 19.7406086696
-11.2810416822 79.6359643124 -17.2407578046
-21.7534251826 20.6025944860 4.9361242057
17.9083198893 75.9865837523 4.4808858047
17.4116110077 70.5011701294 -6.7160119710
-55.1666975559 64.2131518836 -10.9774037874
40.1058280268 55.6543234697 -17.6663890469
1.1967144228 6.1905551914 5.3383356883
-5.6413918759 75.1431604271 34.6843889893
3.2402861805 16.5826668700 -3.0466725085
-34.6058491802 -41.9902031662 21.7552874395
-25.2641216266 -28.1975457609 3.7869855745
-35.6423150534 -52.8360107341 18.5427395089
-20.1707466939 41.6716831466 -9.1627974243
-4.9290621462 -4.9044774452 40.9039198838
-15.0152928326 38.8017647273 -11.9797090806
43.1360880657 48.4715445018 -9.3917848812
-3.5190901562 48.5411505075 38.4415657476
-37.0998262029 55.5601902833 -15.5584681857
32.3708041538 -20.0608965954 19.6433473356
33.2086387850 -0.6284216060 14.9543673247
10.6395401934 85.5537937356 -16.5579345780
-20.1222755439 9.3281161141 25.8696768440
40.2494335947 52.1079123596 7.4070099876
13.9219221898 -28.1859002170 22.6510765867
-11.9624565469 42.2249485021 34.3256234284
-46.3823699215 -46.6890051789 0.7962466087
0.6978063866 1.1495152511 41.3700956800
18.2909232525 -53.1479300272 11.8508087710
42.3316347499 53.1415502956 -18.7557998742
16.9499392387 80.4590191604 8.7284313793
25.1710493266 -9.4927366697 -1.7997269045
15.9774883331 82.5941545935 11.9416622286
-0.4445638014 66.0232996640 -37.2199280418
0.3120786930 54.0443284494 -16.4278366530
13.2935990450 70.4227530406 -17.5624351597
-42.5484305951 48.2432044967 -10.0337109744
42.9760386070 67.8533098708 -7.4297870884
32.4776978543 -26.5434848040 14.1737118606
19.0047011566 -45.3343445763 12.1395903529
-61.4612953604 67.0921090068 -25.0228855744
-2.9624470638 -8.0089416485 52.9104201352
0.7987301840 -3.3682654337 46.8869317538
-23.4038814200 -20.6267682688 4.0347900274
-50.1267723190 61.7059647950 -8.1729138269
40.4752522764 67.1199084767 -10.9860749916
29.7642415032 -19.2021875067 0.3712995699
5.0726541217 22.5639812985 -3.6059484421
-54.1669328336 79.2378052441 -37.2908084537
16.8494323777 -27.5076067375 25.7853838818
47.6525205417 61.8181585108 -1.7298899212
26.5186314882 -38.1293113408 12.9256884891
4.1104445922 14.9116145663 -1.5520451269
-38.1884487869 63.4149235857 -14.3449541991
-8.0636065675 8.2773522211 2.3610402900
-27.8260855076 66.5673375943 -3.6318705405
-32.9304576035 62.2415534657 -11.9074627158
2.6054835918 27.1375137230 31.7990341069
22.6044538286 73.8647400868 13.7182487762
27.7189005315 54.6047582340 -6.2673776687
-9.5188048823 7.2434479854 22.8235938115
-37.0215153015 8.6818012419 7.0663128560
-21.5755837114 43.1349239352 -8.8864081620
-3.4077137751 31.8760826226 33.5322690503
2.2616566266 64.4039616342 38.8976616023
25.9649189270 -36.7792065970 28.7512785984
-37.8588638155 47.1724507286 3.4340627815
-57.7692746948 65.1510309260 -49.7148543803
-40.3492580686 64.8023497583 -12.1283347851
-60.2949029896 66.2593933892 -30.2728627133
-46.6569533089 70.1640257430 -31.9315062144
-5.9996748126 5.4613678709 8.6470258855
-18.0081372905 57.0741346076 34.5839604981
-36.1226909895 64.4263378752 5.1773527768
-24.9075522084 74.4433776793 16.8687365345
-42.3592159205 -52.0323054577 0.4636834414
19.0365090617 75.5799701951 6.7053235999
-12.9115881249 77.8031116482 -16.4790597323
-44.1429924044 58.4887582202 1.6584102795
-40.3415323875 -34.7711281083 14.0803268186
-17.0670503991 27.9968978775 26.0335523550
-33.8141972804 54.2945891027 -13.5161243042
29.4305529811 2.1890103775 0.0720434917
-60.5648846865 70.5293463202 -43.1602258576
-43.1559627078 62.9367950873 -0.4693491657
27.0231853181 -19.4487272470 1.4461146059
6.2329560129 26.9001426761 31.6702083262
21.3670940620 39.4245477262 13.5441655406
8.0168466258 65.6283075572 37.5348218747
3.8456254878 88.3456228455 17.7309546633
-16.1198585469 74.4100348800 -11.6018207757
33.0516734486 -5.2063787374 1.2520175377
59.5863190889 71.2971243736 -14.0608379123
-26.9113686412 10.6471502356 24.6781683187
17.4909167329 -51.1571954751 13.1031008405
-48.5054949806 73.3995994310 -22.9767806597
-48.4846421503 55.8305110546 -29.9443327906
-39.4195991073 -37.2873216390 18.5635763656
22.5506343421 75.0900347915 14.7078210105
-24.7277936480 68.5243046628 23.7994478691
-29.8613808051 12.9339872028 4.2993841781
4.9818017332 88.6276871764 2.7877675012
4.4487977654 84.3769139454 -11.0648768914
-14.8622053628 45.9202268583 34.6368549559
26.8396932450 -53.0298329833 15.7591460379
-4.0930182882 6.0501096095 14.5152225573
15.7728740824 -7.6479797928 19.0362246094
2.5202471718 -2.3170551158 38.7210230594
12.5095406020 85.3352074714 8.5242061505
-18.5312385123 96.8570050088 -26.8991750427
4.4550564689 89.2202556297 12.7620782379
-7.9670058678 40.4980134436 33.6400592835
-16.9812091408 43.1888396317 -13.1719924307
20.3290896095 17.6982000339 18.3224366900
9.4390203144 -1.3823351528 8.8882036002
48.6776811229 81.7737012031 -24.3484821565
0.0561962677 30.8134269508 -9.3237800319
-38.9254505248 64.3160402303 -13.3789235732
-57.5224588683 56.9688610640 -32.2890730266
-24.8328533653 42.1129314706 21.1784586409
29.9586850403 -39.7409223434 21.2782483859
-48.7169715325 -52.3123396433 6.0572551725
-8.7239545245 41.2184493294 34.4677951223
13.7405795340 70.9033403353 -15.8001876211
-6.8393904414 53.6641627679 -13.5521313610
1.8251535663 47.6816976615 37.7910982356
-62.7290275543 63.9071890856 -40.6716676042
-50.0699589098 -49.5501483962 10.9249560859
20.8678667465 39.2634173239 16.0710461345
55.9692456131 84.9909981962 -30.4409317209
-47.6661411194 -53.2040491349 7.4778795183
-22.0793813053 -25.0624026636 5.2402965563
-14.6396761310 80.7520415563 25.1273914965
22.4216651833 42.3261874193 2.8490339915
31.6124598587 -31.7988275109 16.9536669928
26.2380815910 -13.2557538277 19.0716360024
14.3664293894 -28.6874238141 23.8067402377
19.1135914765 10.5116034790 0.1401232649
50.1323372346 77.3246090001 -18.6486421835
-9.1040747199 87.8930021371 -18.0893301333
-27.9729797879 -7.6856797418 19.2748403338
5.8196673318 69.0320907334 -33.6374903997
-38.3642730534 -16.5015745491 18.3272143080
-21.4558747636 14.5194042408 1.9044475810
-12.0161637168 44.2943783286 -15.0215507984
12.9682184452 12.7662132908 0.1180163005
-23.6124782927 -10.6133732132 5.9429834883
-19.3418078734 69.3458049216 -11.0024967590
-29.0688330470 51.7065655140 13.1803664752
-37.1874044713 -52.8374160310 9.7953792012
48.2888089317 58.6324407205 -25.5933990715
-30.1651858088 -16.4698686901 0.6687657959
-61.8376655589 64.5153822520 -28.2734551776
-36.4738391390 58.8319498371 -15.0292944507
-6.2530542592 4.1581549916 12.4460633689
-24.0979528756 -16.1489247512 10.8368480001
-24.6329531083 20.4019419614 17.9168255403
26.1876978970 -4.7877709724 20.7705012288
-5.4300039899 -3.9456479816 43.6951654438
27.5835479009 57.0087085872 16.5343837026
0.1950519032 43.0903566305 34.5498048008
28.1316526795 -35.4515302349 12.2565347300
-16.1537436227 83.7219640422 16.8664667815
-49.4348301180 56.3123951346 -6.1533511414
30.5973835091 10.8977782297 10.0343264611
25.3459108646 -29.0701125890 28.0006236786
29.3168506440 -40.1127857449 23.2159371227
17.9584927894 31.8784515312 11.0706551760
19.2192687595 -44.1109401343 13.3842662386
-21.6293097128 70.5615516196 27.3328528858
-8.8411644166 89.9398337335 -21.1166382685
-20.6712012655 38.2497250088 18.9375779455
-18.4827039738 52.2997881208 34.3070734284
9.5241164359 87.1157940796 -17.8191337008
19.6029535918 -52.6942542141 31.3586575899
-43.5697579711 69.7756358742 -17.2010656792
-50.0777965594 51.3350588846 -13.5573485439
-31.0023304767 -0.0721117454 22.2460429030
27.0679982135 -50.7613789401 -5.1950040803
18.0394439298 70.1553067510 -5.5463172493
50.8131710375 52.5816459745 -20.1548897601
9.1310117437 86.7362404183 17.2349951861
20.4818851782 38.3345519202 7.3155355098
22.0367141039 72.2788949470 22.3390491176
13.8346167747 -22.6505203112 18.8804020179
18.8777922877 69.1656965907 -7.4348185543
5.0512202753 18.4624932284 -2.0566010629
2.0466207765 73.7207423932 -30.3645354532
17.2843257166 -11.1294887948 4.0724479899
17.8543762745 -39.0973982928 14.3516050003
28.4530925149 -12.5191368866 17.3403724409
39.5980266287 60.0275146667 6.9124981774
-41.4288546371 66.4571395555 -7.0109142673
6.2534285732 68.1439327060 36.7631757885
-11.3037844087 86.7714844830 18.0250250631
24.8869388579 -24.4349925114 26.7938972253
17.0958758769 60.5978912833 33.4407637132
6.3151763142 51.1618384886 37.6311602969
-40.0719717626 57.2959920938 6.7474155290
-39.7633316286 63.2927226461 -22.2751579626
-29.6483348132 64.0628182383 9.9651596480
-57.2573495221 76.4475814106 -33.6025418252
31.8697586817 -6.9074058748 0.0573782548
-27.6974417410 -18.3762770934 19.5620852276
35.0850770095 63.8256108744 2.3162512181
19.0539241710 29.9519954893 14.2963912967
8.7840176125 37.6853262867 -12.1042918040
-26.0963747399 19.4050326110 16.6653696632
55.7474781720 81.5013173181 -20.3494747723
-14.5425624051 92.3740358657 -21.0179257156
-54.1420173290 72.3304440060 -50.9060362641
21.2169935875 -6.0092834826 -1.8539348705
30.7964692635 -26.9379979556 23.9054636171
25.9738071300 56.9255368739 17.7353141937
21.8082732462 40.5871902161 22.5749676088
-31.3406004339 51.8686568190 11.6670696207
17.2553255481 -4.9454090812 -0.2895696414
-49.8832594520 72.1796543018 -18.9016122253
45.3916142231 54.0873139295 -21.6599243824
50.3691388915 55.1295807113 -3.5906483398
44.5722129184 49.0988503861 -1.7230914426
8.2441166791 34.8433092025 -9.6793745932
16.3333350799 -21.0827158820 8.3767576453
-37.2525453511 -23.8425192876 21.8004694946
-23.5209816831 -19.5721448677 16.3873852203
-2.5529996023 89.0724100184 -3.1485092595
18.5426739502 18.6244168899 3.7480772564
-24.4107881768 14.7316584378 23.3229681738
5.3876345060 41.0754977892 -14.0322523355
12.0081758924 79.3491202110 -16.5187362573
-26.8564305026 -23.4743978412 1.7022769690
-38.4609704086 -34.2896088485 20.5563170304
56.8007244910 59.3229620019 -4.0417484485
-43.3651663617 -52.9102080775 1.7460720526
-8.9047005543 35.8215362309 -11.3142759284
-2.3635265581 15.4816575290 -4.4224634175
57.9576037334 55.9611032042 -7.0392871234
-22.8860040382 16.4482680974 23.4019471474
-33.6703924224 46.0469164979 3.5694377255
63.3674890357 70.0174553000 -30.4503214566
23.2650184620 45.4943173378 18.5572541573
-26.3313164616 56.5352539744 24.8253835161
19.6882840445 21.8641681561 16.5970693610
-52.3527562611 78.8857251974 -37.9619318766
-33.2869097377 -52.9818497605 14.1877090660
-24.9815167798 70.3586601811 22.3047004255
-6.0519902186 55.8510902883 38.9894657820
-9.6589194619 81.7999891057 -14.4773477797
-61.6089645524 61.1412567108 -35.9049750739
-11.3971533753 84.2373574564 -17.0196782156
50.6294799268 54.8268561183 -22.9839313182
13.6525772214 20.3610793749 1.6158480058
-22.0889748550 75.9351607586 7.4505693675
-59.4386088222 63.4680265980 -13.5247136087
55.8881550653 67.5456114818 -31.1003853697
12.8627396047 -24.8086836934 17.6323758386
-10.7507019432 49.8144322637 37.1570449515
32.9585808814 -6.9777981006 1.2745846297
-24.7629523306 60.3000377224 28.4092743836
26.9442305979 64.9328613384 14.3865316608
55.0937843833 80.5515836303 -18.8890971278
-61.0146850255 63.0559082710 -15.9214578210
-25.7078429803 -21.5525444505 1.7456180353
5.8015825865 87.5100272847 16.4554761526
-24.7791264864 17.0871671509 21.7787177650
-30.7747703267 -20.5154244241 0.6858840243
24.4198390195 54.6857424984 21.5628608743
-4.1437514537 54.7305406740 -32.3585317036
-50.1617320960 73.3901322942 -36.3018244678
-4.2656225220 -5.0561647744 43.9735896468
-40.2137786883 -0.9270761797 3.9356816514
26.1695434994 14.9604711465 16.2207000231
12.6135994455 29.9230340453 28.3065386486
-24.4038245980 59.7305937751 -10.7667523460
9.4945161079 61.7507138100 37.2929367194
-43.1359404901 62.2482416816 -23.9253990192
-2.1102275420 38.9306283841 -10.3785973951
-33.8367982414 64.4838111551 5.7794366305
-8.3682999933 31.0438333346 31.6125426966
-3.2004000073 -1.2359602778 50.9580997171
-10.2606106905 3.8471619623 8.1013698598
16.7776943993 -32.3897025369 27.1784236504
13.8776297329 -38.6158239452 20.5003512190
31.1746581402 -31.0811541570 14.3656418152
-4.8620924108 -11.9784064019 57.5463621147
-7.1412138188 83.5591763533 -25.7991382342
-39.7143134048 -31.1400426218 19.3467555226
7.8079058253 63.9162564779 -30.8573206690
-9.7836524252 82.8174661161 -15.3373013245
46.2188131823 49.7885679711 -15.9065074011
-60.3538539509 58.3428055728 -41.7370790168
-44.9751914043 48.0463399394 -8.6071987582
19.8972524915 -11.6169588222 0.7873386550
-43.7854569879 -44.8634040356 12.9771921964
26.5212930252 44.6916950738 3.2241541661
-6.9065116581 10.6228595137 27.5137667697
19.0722656558 -13.8759559913 3.5207313610
-21.0924451880 -22.0253360671 9.9941706157
-50.8269279618 74.2595206497 -39.7563824509
14.9095670835 35.6978454638 25.2496321904
-18.0490068639 48.1012528866 -13.9447834523
7.1606609806 29.9178876162 31.6067310509
-59.6548318581 58.5109735559 -46.2845341405
-4.1780503807 81.0902656961 31.4473426801
-4.4842332858 3.9120816696 35.9834841821
22.3238729191 -19.9337732336 3.3957870945
31.4899936402 -53.6144507339 11.6420987548
55.3651388763 83.7813945318 -23.2893348956
6.9986970578 25.7169944421 -2.3192500175
15.1799165593 -37.8246416790 15.8569143474
16.8384342153 43.7629259343 29.2367066501
29.5054481425 -49.5794181856 21.1081943670
-7.8492773018 74.8015488012 -28.7432822621
-5.7546615855 4.2657851136 32.0421378920
5.1356817252 57.3202144811 -25.2967993909
40.2541127448 68.2128340944 -13.1276186589
-9.9829623797 79.6142421516 -23.4277219982
6.2311339201 57.6046967043 -31.9026715595
-40.5654145636 -1.7385638494 6.8404069738
23.0692928674 -10.6516475376 19.6269926638
-9.0347933036 82.2418209130 -11.5338921054
58.2549634526 81.4515977937 -34.6587989368
-3.7730293548 90.3631198694 12.0713948700
-28.5953126111 55.3606914891 18.2415596088
0.6123892163 54.7649074375 -40.0571627773
24.0347762448 42.9150262954 8.2037554835
13.6871483507 73.8650033418 -13.5047914041
13.2251495498 27.0406049188 2.7804195661
25.3685778869 -23.2161932977 2.7532298823
31.6581521151 -27.2730404471 7.9796813267
-55.8428607805 74.8571100688 -31.1240292745
-27.8799387386 -3.7901228525 21.6323328999
8.2154764110 62.1090979715 -34.4814164457
24.0105264790 65.0236368009 23.0707914950
8.3004060445 0.4838070655 8.5484626414
-61.3733848658 59.1100080708 -41.1933474179
-30.2615921311 -4.7583080671 -2.2022881805
-29.7434993802 57.3245810742 15.9426265998
50.2236687522 50.2633872898 -10.3310630535
24.4184841406 -53.5400411009 24.5349500382
59.3775938292 72.0533637773 -17.2160898123
-20.6313089179 46.5980540038 29.4478598555
-11.8703116893 93.1400466954 -22.4845033506
17.7423350646 36.9465548639 21.2546912805
-45.4043951761 69.6971418447 -31.5164999553
51.0594701567 77.6411588426 -28.1879654521
38.4847640991 63.8060840269 -12.4740435914
-12.9293809202 39.2257878356 30.2600779044
-36.3140251506 55.3148273719 10.1186597963
14.5699382550 -35.0108468030 25.1644710098
-10.6217585787 64.8806230677 37.0604548245
19.8314269123 37.9826116679 16.9810598207
-23.0806510792 76.6362234408 17.1734529313
-24.9005749767 69.8595708878 -3.8117715283
-1.4096102973 9.4142368300 32.7084382842
-39.2556631316 65.2254198583 -18.6847100823
18.3763073422 34.8460743059 13.7802401411
32.6559896083 -18.9377617053 5.5401365979
-36.4304574476 58.9638903518 9.3939726932
-2.1702650223 54.2754053908 -21.8239863031
-19.2049602007 40.2000581554 -9.0259414997
-4.2732136869 20.7286643770 31.1170604175
25.4800003678 44.3129074582 5.0977650833
-44.2642762006 71.0730008965 -27.0928137193
-7.0553134152 19.1549543158 -3.2980081595
-5.6926204686 -3.2910707160 39.8326406589
-33.0994299928 -33.5904058382 22.9385544496
-24.5786692871 12.0598829852 0.8953061572
-6.5343220290 89.5961652688 5.6664423764
-52.0132346066 -48.8411653467 7.0587669303
22.3568211535 60.7627795300 -8.1170013073
50.9966571284 63.7140638499 -1.4237221228
13.3900560694 67.9606016696 -15.2719713213
-14.0409146724 42.5890255947 -14.3368003194
22.2129932974 43.9256702762 -1.5912114741
-55.0273570032 68.0083510009 -12.2970321127
12.4796724666 -2.5887458355 3.1033087493
50.5678125549 72.9608463779 -25.1509661157
-41.9061550212 51.9867969460 -15.8962955990
25.1513810742 69.0865214597 16.6234827152
20.4426812587 68.6355162984 -3.6864506237
32.6642389585 46.0902326393 -5.1215096645
-39.5324565622 -9.8712495333 10.7432694859
-4.2908244599 85.8345213969 -16.2920783064
-40.3665313232 -53.1055182886 5.4231205473
-9.7340632985 86.2525378817 21.0779112845
-23.9533444343 -49.2993725249 24.2898944669
62.1172073007 62.2981973142 -9.2757185986
18.7388722540 18.9094705210 21.4019310186
14.3342399077 82.0736938188 20.7934625710
-0.6479922446 51.4179366976 -29.6120171418
6.8145908706 41.3854595876 33.4364596658
-19.6917752607 80.6255187820 16.6759998392
18.6543093253 -47.5788097933 11.1318819175
-52.9428685525 69.1613718183 -42.2813629390
15.5536412027 66.4230093054 33.5153922948
-13.9122102295 92.9387446016 -30.0917257477
-22.8876569411 56.7209325144 -11.9004426249
27.6818886940 53.3204069823 -6.2379648661
34.2755402029 -53.6862689542 13.9159608742
62.8493043066 63.7568408303 -14.8778752792
-29.1728280006 62.2734148766 17.1000734386
24.1180407082 -0.2138939667 23.2893105503
31.5040526572 -9.1689267922 13.2633719476
16.2843769168 -15.0917101150 14.4447439080
-22.9993926505 -49.7995520818 22.3432566365
5.4189004042 25.3315949772 31.6988172041
-17.4900032930 78.8734250588 -3.1191099757
60.2378192944 62.5185461211 -6.8843664239
15.4661334594 93.3097361647 -27.8494174036
29.7672406380 -40.1274239457 19.9562251201
5.2104788963 30.0336036049 32.0069888420
-33.0446244481 14.2259389700 14.8031714023
-56.9822060417 68.9838504271 -15.4270970370
-21.6864047335 38.3467411542 -1.1127895559
-34.0543817986 47.0410332565 -7.7415949494
23.8575535918 10.8664256527 22.8707387370
-0.2980010153 82.1189575065 30.5613868015
-54.8040581262 73.5237150075 -23.0669822185
55.2506566486 82.6841877659 -34.3918167388
1.7286171389 43.7081093430 -13.5365467053
-27.3854723115 49.1450297699 -7.0350018588
-23.7668053561 -0.6280349477 23.8361140732
13.0649201218 75.4410955265 -6.6118468845
-19.4961173342 -7.4620825635 9.2003470183
-56.7007044931 58.7051110105 -54.0143390427
-23.2764616890 -39.5360403828 14.2351237276
-39.3128983417 54.4356971941 -16.6826557053
22.3846256369 -30.7791613434 28.7095003329
55.5514118206 74.9086984603 -15.9741679135
-22.7311684841 -33.1457712852 9.5293497277
-32.4333001196 46.0035327072 -1.9306658665
-60.3982126015 69.4639271306 -27.5915776874
-26.1769825374 -50.1582830039 13.6095356950
-24.1245110582 -13.1624019049 10.5998931022
-20.0606398886 43.7161990127 28.7602314655
10.7383909255 86.4458083373 6.7260904040
-38.0592220505 -45.2396750773 1.8522929582
-26.0253220363 67.4290665585 22.4296409348
-39.3679627877 47.3005956285 0.0369754478
8.9266530420 86.5216504298 15.9247230100
4.3259887404 84.2766413304 -14.3201975419
10.9039401854 80.1295425844 -15.1446558207
-4.0532639110 11.0899198668 -2.6895798104
-12.8968458070 79.1045429414 28.8427468364
-20.4443598237 -10.6651180859 11.1172140266
25.7858460102 0.5523998767 22.8944687828
-30.1543736293 52.0313834648 12.2310706417
-22.8305024314 -20.6559370424 15.8748546551
-21.0657752583 53.1623954886 31.9183247931
-34.8406373972 2.2676087511 20.1916025217
42.8235300912 62.1462806390 1.8208096583
-5.6164591830 54.0105842132 -30.0769555614
-5.2563719189 -0.1267951035 33.7332713509
-38.7007635642 -15.6271189872 16.9991377863
-38.5246150787 66.3268600517 -5.4229114467
-46.4586504430 68.7976615163 -30.3281166398
-9.5415017515 59.9202785714 38.0545634620
24.1677928151 -3.9955717320 21.9311536375
-7.9418927144 7.3231707143 3.9008806152
-0.9726815734 2.6869055955 39.9923229068
53.3862200021 86.2079109654 -25.7351590077
28.1888698145 -44.1493491888 11.5353783344
46.9489982947 70.3653568911 -7.4527129695
-3.6319536633 52.9875508169 -32.0529228034
-39.6533641688 47.4621928991 -4.4295442870
-33.8492864306 -44.2084196264 6.5445035692
-30.8062009646 -6.9129161572 18.9325958449
7.8106600795 45.5872472936 -14.5608509153
-34.6052220504 65.8753726706 -6.4021189847
30.3443739486 -34.9210900850 15.1175052725
-29.6045426230 13.5997467997 5.4543368226
-13.4926625874 57.8879071402 36.7051478667
50.4692105251 58.6854431175 -2.4617407917
15.2406034440 -42.9342022533 25.9680132453
-6.0921724805 -6.6789884278 55.8312538133
-27.8891097469 66.9756033911 -0.3039144861
-8.4435189518 45.9859730276 36.5933058844
-17.2946936286 31.2453211859 24.8123054233
-7.4207326076 50.8171761050 -12.8145757111
30.7416355131 -0.2133648591 0.5664010956
-17.2026688345 67.0851585103 -15.6653143759
14.4019414332 -47.1463312718 29.8290036728
-2.2022654849 54.5958238085 -40.7703757629
16.1557265525 -25.8200304249 24.6254785457
16.6241252411 36.6316830425 23.0685334316
-58.5477204926 69.6073232091 -49.2198423634
27.2605345721 -53.3261451133 7.8404721512
-8.4012508916 88.9826171255 6.2497167133
-7.9638027801 78.6455071406 32.6382562886
-29.0769216693 57.2824601668 21.0307539016
-8.0149534284 18.7723679129 -1.9771554984
17.4226280136 7.7059781914 24.7958488511
2.8946312429 5.8161149315 23.3968684143
6.0708707929 35.0945787189 -9.0989894331
38.6350450102 56.3134629085 -13.3404505783
-11.6941169594 29.1498464225 30.2549950247
-62.5319982562 58.8440122432 -22.7550808074
34.9516776990 63.7325194423 6.7152720186
-32.1227137968 65.9748587224 0.7643256417
-35.9648094125 -22.6914890704 22.4285984466
-45.8972222103 -52.1882154522 14.3958227242
-42.7307653250 -52.7996174159 9.6982602210
53.5592119938 65.3457742355 -2.0782092992
20.4857539902 51.3116633472 -8.4917957280
-6.5582235696 -5.6741887807 54.1533807860
16.3817051609 -18.2748848802 11.7181471854
-47.0331804588 60.0940068443 -1.2399010164
2.4148514692 89.5600445323 1.7683504480
7.1862274161 82.9651683953 -22.8306026391
-10.4731791974 81.2444422087 -15.8461744928
18.5877908514 35.7512957583 6.6693642027
-24.7693874728 62.7146839305 28.0368124678
13.7385938589 35.6076193161 -7.7593232984
-60.9518747488 73.4368963850 -37.7196498892
33.8280569339 3.9133210897 7.8222956353
17.1829642945 -50.3977079777 31.9336913370
33.6602340491 -53.8365478936 1.8168101437
-9.3036038948 5.0661579340 21.4638571622
12.3579461573 -49.9183520309 25.7775799800
0.6700736521 55.6071451340 -42.9249947966
33.1111680177 -10.6494102320 5.8345699640
2.7035715809 5.5966677057 32.9432083137
16.8977545206 40.4139491148 28.6430440715
-4.7426869065 -5.0416984779 42.5272872021
61.9659820453 66.3521470863 -12.7303036251
40.8038873591 47.3610818855 -6.6459904739
-40.5120522114 -5.3097918593 0.8390820291
-28.6163732689 70.3234041390 5.8546740111
22.9484439015 13.3935119014 3.1923313036
27.6830452226 -37.3537337385 27.1827755353
23.4229632973 -18.6379185633 1.7493002977
-13.0105610685 53.2875211124 37.0997246858
26.2766275400 53.2836769322 -6.2921301941
-38.8132299783 -32.6268805264 20.2939174966
58.9400303814 65.5660606972 -29.0049432364
-15.2346632720 85.5855392821 12.9717777552
-2.6163035305 38.4373685636 33.4642594874
-38.4267459689 -32.1661398444 6.8692417683
-16.3558373588 32.7282129050 26.9398379974
51.3962921824 72.5022757352 -26.4073447208
-38.6155532374 57.5210109063 -19.5445054271
-27.2859045567 4.1545334727 24.9846113104
-57.2283537380 72.8724235874 -29.4247831929
-13.3211822828 43.2567228195 34.4613652706
19.4907101620 38.2380239241 1.6240357694
-14.1383222066 1.0736444114 21.8221058915
25.2840092740 -26.1280873419 27.2522422464
-23.7637311214 11.3039578360 25.1836642941
13.6725350188 -52.9041591205 28.4340835248
16.7160018880 95.3459967176 -23.6103344377
15.0013725088 42.4912804597 30.2327545826
-24.0560987898 7.0309211815 -1.4943776980
15.2685891435 81.3229361767 -18.6909779458
14.9474406468 8.8550643529 24.9588093525
14.1175041994 -6.1215572574 4.3413395850
33.5835967945 60.1231572588 -7.2396317382
-41.8028396774 -10.2741155620 3.8629118343
-27.7952129010 58.0782705754 24.0933791624
-18.3763825406 46.0828993825 -13.4026757348
-50.3529691769 61.4746933626 -33.9051064673
-38.7475985657 -8.2619766349 -2.8843155422
13.4117508100 -47.5367862032 22.1233417834
51.9390263363 53.5185936040 -20.7314536887
-25.5995340257 18.2308728349 19.7850550229
-28.2887397527 66.0918629901 3.7828337206
32.8038291212 -23.3365076982 12.5492806282
17.3191376182 -19.0223399576 21.1818389167
-21.2647784230 -30.1517493377 9.2506841609
-13.4781698572 2.1044760171 5.5051689528
-10.4337759428 81.9630040211 -26.0869051338
-32.8277266298 -53.4226718311 23.4406640802
15.5739904477 -40.2205875733 17.6736804052
-25.1288008700 13.3265066753 23.8666037604
-13.1310263476 81.4857032286 -7.0373069435
18.9616640321 13.3511500998 22.8233093077
-32.8342372099 49.5348999965 -10.9886229275
-35.3528191453 -30.7247450758 22.4705418227
18.0704924624 33.7780125811 11.3174718494
1.0969496221 89.9956030431 7.0284059115
-25.9376267684 60.4556375657 -9.3024523507
16.0942999175 27.6300637247 7.7787868650
-29.5491667714 59.6413340951 14.4572588186
15.0769845514 65.1630353453 -10.8448777134
38.2902800532 58.8994589410 -13.3469937202
-35.2518189196 -33.2017681370 5.2185505487
-56.8609439971 60.6098490662 -53.6070915204
23.6431585768 -15.3368562315 20.0535014751
-50.7609159459 50.7009670868 -22.4119350434
-40.6895813164 -46.8319011723 2.2972873152
21.9372597344 3.3274958360 -2.0262996024
-0.7723163803 68.6422306193 37.8359739070
2.0593658604 52.8639578009 -33.7718876035
-19.1261989123 67.7786267103 -13.2979759755
14.0127259604 68.8293385004 -16.1318706673
-62.9954922256 62.6375923736 -38.4434119711
-40.7656681166 -33.0986039684 15.4733300370
-32.7791898357 48.2023184100 -9.5107782080
13.7352398091 83.7741544550 18.4035198045
-39.3730876606 50.5702285427 6.2490041457
-28.7353350835 -33.2418161051 4.6256234540
19.4970270804 4.8633906355 -1.5901454642
60.7015305368 77.5043840479 -26.7362094124
-59.3912431373 68.0792334053 -50.1866515062
26.8639215675 15.6103573792 13.4476476498
-32.9968120607 -42.5295188339 8.4298451798
-25.3503541749 13.0733452171 2.1478954749
-19.9253858951 23.1888399234 6.3452107345
-55.4957287485 69.4983460393 -47.9077500595
-3.2485344903 63.2638719107 -38.5273719713
56.9211164488 76.7455927025 -37.0878916741
-48.7605850682 65.2098968250 -9.0307547547
-36.6729141997 -36.0493052058 21.5016314952
-28.9591774495 7.1975363008 -0.9694863239
48.0956407066 65.1608982022 -3.0981529258
-25.8478487437 72.8533409182 -0.5771368067
51.3116266238 57.2771404805 -25.0964609588
17.6563111032 51.9765510485 -11.2055561291
12.4371066409 92.0215926432 -21.2213804347
-39.5742609748 -25.9300376803 4.3226305407
24.0299352012 45.3644229669 14.4118283455
12.0760838436 90.7051593946 -26.6284003118
-38.7676502047 -37.9045182248 9.7020302547
27.8051455377 -41.9644499865 16.8160101491
-4.4228886756 55.8713872709 -33.7085759530
-24.1481162368 -46.5522506670 16.8607563521
-8.4249692885 3.2030207881 10.4230368313
36.5556201905 51.2741960195 10.8065026576
-29.4333368286 66.0980737248 0.1662841653
-28.1575669993 -34.9996780711 22.6694251511
-12.9309321580 74.0468799027 -22.7110102024
-18.4150222129 34.2003847543 23.3059338417
-55.1177150907 59.4368837182 -11.2454221622
-26.3479921337 16.4725976915 20.3585384995
-23.8952274844 74.0694003974 -0.6804294934
-27.9933751001 71.2207734680 4.5068781825
27.8400166208 -35.3080014174 27.2117665105
13.2963958676 -7.9764614754 11.6723321261
-26.3213343291 72.3629479938 5.0368322957
-20.3100020512 28.2735846047 19.4488431698
-25.0887111345 73.0089782481 8.2122177265
8.7138058156 62.4644202933 -28.8973014166
-51.9521309145 74.3557230886 -54.0877478567
-8.0895298821 68.2763649524 37.2039814648
4.2333160275 4.1228342158 19.7501630356
-50.1030115408 69.8010514935 -35.1093822029
-21.1589614795 47.9485379422 29.3927452304
-36.6132332741 57.5800605263 -15.4205531176
23.5171040733 -43.3821433803 11.1818731139
-16.5443827796 -4.2070574814 9.1155786892
6.3989938722 59.3595780733 38.5443992413
-26.7818419211 71.7786031769 6.9088256591
60.6352740932 76.1539524614 -39.0847467847
-19.4174111529 33.6416718274 3.9764850965
-61.1105248723 71.8299689405 -37.9293491827
1.6093197855 -2.0083405610 43.1322219562
30.8327341406 -32.7049214002 15.5728335076
-41.6160543207 69.2802352833 -21.2575297956
-39.1625968435 65.0056559953 -15.8083590645
-18.5652508119 77.0642771677 -5.6935944281
-51.9250246214 51.0099689294 -23.4774348166
-62.2624821486 62.0532997010 -36.6502175993
53.7415584757 69.0527336648 -5.9121274919
-7.5954572177 17.3179213369 -1.9759799121
-25.5206896274 68.5140529426 21.9796331512
-31.8197013238 14.0156491465 19.1041217258
-4.8112838234 -8.2510658970 57.3929588193
37.6599451996 51.0703390619 9.7590176683
23.3648966701 -37.8044865798 12.9505662087
-30.1283197727 -33.4030869345 4.4717936636
-20.8331953053 -0.6972068788 -0.4472001851
52.7884248768 52.3495049668 -7.5214159097
22.6928699624 58.1797351112 -7.4459902698
25.3874693054 -52.9458284026 15.8560917751
24.8340213230 70.7863020164 10.3709880080
-45.7293155559 50.7044898076 -15.5871679893
-32.8912250438 -47.2964271394 3.7364082978
-20.5154682520 79.2094806729 15.4523484850
0.1275834530 86.5626705408 -8.6985811416
29.7572482928 50.0052895837 13.9230713268
-8.4688460565 65.4186998773 37.9507810262
-31.5775622846 11.8321085277 3.7825247723
4.2927771444 69.1496530387 37.2700509688
-3.4742146168 85.1685226842 -18.5707565809
26.2877361988 -7.7920687737 -2.3738005823
-29.8413447308 53.8257781927 12.7922410249
-20.2428528504 31.9674900529 18.7790023111
-52.4876245283 60.5509398986 -35.3258591636
22.9188686172 17.5007546615 14.2990047980
10.7538967262 17.2647033082 26.2032791340
7.4787022775 85.4688639311 -19.0184726926
-44.9849372801 -44.5207577863 8.6540460385
-38.2713592746 49.9581287309 7.0411688902
-9.4291744614 42.0302666161 -14.6650659533
-6.7925495077 7.6092156115 3.2047769100
-5.1655898960 18.6535793914 30.1755470165
-27.7061711069 16.1061170480 19.9107433811
-40.6415452932 -5.6673658317 -0.5966052779
-16.3951623672 71.6292941223 -13.1449265995
-5.1041429779 85.8422613169 -10.7817717039
8.6587669047 53.8505586143 37.5877213000
19.6882566144 -1.1591906809 23.5413759654
59.1828522971 77.2248897583 -35.8677788886
-29.2835159941 6.2873910530 24.4058002780
-19.0395678978 13.7681928506 25.3678866973
-48.2823448032 61.6570561011 -31.5163813910
5.6593700034 78.3480593141 33.0117659421
2.0422186089 36.3774409310 32.2815629204
12.0687260856 71.0977452853 -22.4055486924
15.1559198939 -18.8770941447 15.8304091334
-14.7447214835 2.7147945970 23.2741709080
8.4377121766 67.1816102660 -29.1346415785
13.3124069228 29.2723100661 1.2321314195
-16.5146988490 94.3287365492 -30.6805696754
35.2778494892 -3.0174675770 8.2189454997
-23.4244486344 46.3009398154 25.8637520300
-13.0153207002 31.6874102416 -2.8279846500
1.4496276949 12.4264818365 -2.7312426233
23.0327624422 63.1017973854 25.1559788333
-27.3569948373 54.6613200702 23.4694583792
60.3991163617 68.0933601307 -9.6484697446
-14.0487783854 40.0678914109 -13.3267509291
-41.9824027072 -23.4074390525 14.1495812760
21.0770703802 54.0868544480 28.8971494675
7.2073157067 59.6124937008 -28.1655574062
-56.0759927433 79.0649617793 -37.1687628722
33.9063029555 -16.4638050235 4.2493907783
18.5402822442 24.7692575775 16.8319414739
-62.6756542581 66.4655314749 -22.8273345330
47.1012990206 64.0594639218 -2.2819892523
-24.7880330094 41.1032577248 4.5055047036
-33.4669176564 -47.3530273001 2.5345390233
60.6969292160 68.7645078134 -13.3558499592
18.1731005578 79.2210321194 20.7764844093
19.0314775513 -52.8102239437 23.4463816752
-30.4846763176 -47.3144072106 24.9245572793
-46.6242632092 -46.6481769671 12.5388731964
22.9654992056 45.9363430698 -3.1235782291
24.1720971570 44.9228423516 -0.3086872462
-8.0563324868 72.4492325225 35.7985249302
-24.9220035931 67.6005941573 24.6974887785
17.3123891979 31.5259148889 21.7218089929
-40.7725122692 -5.1648296598 8.2012021534
6.6435997051 87.2749789077 -3.6034609485
-47.0591615259 -50.1969030224 14.0106376915
-35.8458132673 -34.7625121749 6.4789872557
30.0147761469 -48.6212989640 20.3418092829
51.3895659878 88.0473416986 -35.9635313513
19.6716744659 7.7847205344 25.1550113839
-49.9652620372 80.8845143618 -43.3066402103
12.4157145000 -29.9460412732 14.5521406306
-10.5446565121 90.4935005744 -20.2986436206
-14.9197668659 15.6328568620 27.0670745390
-5.1430745987 -2.0026368871 51.7577751323
8.8374314532 64.2009040542 -20.1467488038
-38.4656406895 -21.2717346431 1.3732460490
8.0935696945 81.7207613673 28.4301303520
54.2597398064 73.5924192574 -32.4742054789
17.5073339033 28.3898217426 18.7515177517
4.9197875813 87.5490679256 18.2796430741
12.2106390317 91.0880487777 -20.1305796678
-12.1561204701 -1.5465641312 16.7109486887
-1.5434837289 24.8745256701 -6.6801315734
13.2333263588 -27.1239313733 20.7930837195
18.6049544638 -18.2980327891 6.2974746480
-26.1598634623 -3.7016854522 21.9873751456
9.2588882422 69.5592174432 -25.9805492373
-22.1448684842 68.6492207520 -9.3347702221
-16.2967878445 83.7718884923 8.2133473713
19.5033759199 -7.8576321534 20.6880704018
-51.0653469984 80.9830734164 -41.1137235962
7.2869552309 17.8307408220 28.7718018913
19.6431498076 -52.9724211339 25.0933285695
8.1149257401 84.2766592311 23.3701054004
-3.1384687879 -4.4605012292 55.3236701033
-21.6329332090 47.0849919567 -11.0585280431
27.4081322496 -20.4535555474 2.2281790073
53.2931558848 82.2874313179 -34.2645534346
53.0626102536 83.1479663984 -35.3131477127
33.0313994284 -28.9582775251 18.9725386127
16.9431304675 27.7420972124 9.9474665881
4.9932021588 57.7986315456 -17.3029099108
-29.0234765234 69.4108280815 10.8021323465
45.1808825899 52.8089426295 2.3465224564
-28.4015709106 54.1744440007 -10.0693703564
-12.9954628508 -0.4351588810 19.4363045432
39.2169234155 55.8138054964 -16.1401830508
-5.6912311205 -10.1824507263 57.4898204691
30.3353495519 -32.9236133748 12.2302586683
-20.7746362135 38.5710970420 -2.5989301634
24.4886249820 -53.0968951221 8.1620273707
30.6750821019 2.6605599876 1.5007692580
-53.1689449686 68.2735677484 -12.5077492188
22.8929222855 43.6859087608 18.1787828756
-39.8879719563 -1.8943266341 2.9721405254
-19.4695221840 16.0891801487 1.5224035673
-2.5982305553 78.4126002849 34.0604566515
55.6555689807 74.6863264893 -35.3693702032
-29.0656823575 -6.7400648232 19.6501285184
-18.5624731425 37.1850005281 22.9337774558
-17.3831592247 17.8306953026 25.7204756771
-27.8145515707 71.1784917517 2.3291111751
9.8259137031 74.9229701105 -24.8066054091
-24.3359286738 -11.9958870661 6.4280135679
-42.8993299998 -45.3983292419 14.8486717896
-10.5764815957 63.5076826810 37.5320707658
-40.6915177207 68.0335686010 -21.4357428582
3.2593709755 55.8707312003 -35.3270370339
-12.7180359938 86.3881186996 16.4319211189
-48.6561258509 63.8351683070 -32.5839222583
-22.7064908565 -51.2877053481 22.0526183834
-23.8511019600 0.6087163225 24.4481495112
18.5267396967 -53.3405087265 13.5367162816
-13.2196692364 67.4607455906 35.4442802873
-23.6163395454 -16.7038282943 8.9469054826
-52.0553374397 73.6557395402 -30.8623502519
-27.7807629246 68.0327171159 19.0451518918
-52.1779295160 72.1556695179 -42.9600809088
-22.8992954752 11.8472669378 0.5397963904
6.1732124245 88.5615265473 3.6788493424
-60.7024828089 70.6378822919 -34.2421771867
7.9782251904 45.4858602995 35.4058091380
-24.5845359659 54.4900864234 -9.8294880425
-10.8369796580 91.7764244091 -28.0956681624
19.4569780207 -29.4213777459 28.0554051693
-13.7658853187 77.4062221344 -11.5442368986
10.2029256125 33.5714515616 -7.7665832667
38.4717928736 61.7581300133 -13.5612836457
26.8975006925 -48.7358914150 24.3813127819
-7.0033857228 87.4111017760 20.6103578932
6.2294529438 59.5277892226 -23.4062014851
-40.1211788909 -48.5200217684 -3.9215584328
24.5897418463 4.5515526344 24.1152953576
9.8388731990 12.0390760626 26.8635412224
-10.1660821241 91.8935447970 -26.3085757066
-41.7541145781 -11.5548522166 6.2954265676
-9.5818524570 27.5496355705 31.3161153172
29.3482773681 -35.9408159472 14.5338872392
39.6537442578 53.1578670944 -14.7194144992
-56.6099945339 71.5166129851 -19.6234115385
18.9432408249 -28.5911939447 7.3313547655
22.5344976540 57.5693134513 27.7971627359
-57.9346352665 60.2215547507 -12.1540205289
27.2918167137 -53.1452780703 10.7363145041
37.0231690611 -53.3171269462 -2.5888082068
5.8533616813 88.2481977527 -5.4197519059
36.3726644857 62.9434088665 -0.6231026906
-22.5518611735 22.9323784862 10.5451191825
1.2861392844 -3.4110294364 44.4032465006
0.7504933408 78.5919024225 33.8938758713
13.4480075867 10.0912771586 25.8645047252
21.5139121417 41.1101247334 2.3686569467
4.8396030669 57.4829777702 -19.8491765294
30.3277173025 45.4568234828 -2.1522123412
51.5936787302 67.7798370017 -26.3320682986
-12.0792475428 86.1113749592 -17.6943531567
-47.4462467190 -53.5850353223 12.5726041866
20.0460867789 -37.3102552712 30.1419970962
9.2368232903 29.1542198697 31.1345397892
14.3382079575 63.9073940552 34.9880808987
-4.4162172635 52.5049708967 -29.8723524307
30.6815069886 -13.5473456598 14.7788401672
14.0507673970 47.4513219254 33.1977526921
-3.4455329377 83.5643441844 -22.1950028377
57.6696581162 60.5435612392 -4.5545157264
-2.2462342038 31.8325095807 -9.4818554244
-10.6233868118 85.2962971066 -7.8224137777
-2.7725455084 -6.2472442221 40.9029461745
-8.5362378355 76.8393767405 -27.9815309877
-14.2333131286 85.1803470967 15.4234070887
-36.5598486812 -12.3410734110 -2.1279466151
56.3560833469 81.7146124367 -35.2526840373
-34.5742151542 52.8262383920 10.2703880077
29.2814478734 58.2328301990 -5.5671798158
-12.0618333519 86.7518417402 5.7553012996
46.2596253121 66.6645091970 -3.7752226238
-25.9931057846 -27.9453355654 21.1663241380
23.5297661829 72.4378686068 7.2586283475
11.2312264308 1.1813230682 21.1048073106
22.9205226458 -49.4463656178 1.2516207455
-1.1694025056 42.8035463732 34.6105314258
14.8640012750 -7.6801004112 5.3601895400
-36.0154037379 -45.5088439862 2.0001367963
13.5924891017 81.3289846114 -1.9905573628
-1.2142741137 -5.2603803344 37.8175744924
-30.0961655480 11.2742732567 2.1658856468
-29.0277000819 65.1115296493 8.8138138375
2.8187899802 78.8758777707 33.3338869499
-18.5258313533 93.5374612201 -29.3686056017
14.9805472195 32.0164131580 1.9211401331
-24.9728608316 -23.9380317062 19.6976595378
-37.1812338091 -18.2634790077 20.5732407249
9.4940782686 89.4576727318 -21.3559597358
0.5367339852 -4.7427661250 36.8596012950
-17.0981604146 90.3704699266 -25.7221171628
37.8215069962 61.6563861516 -5.9216402082
-5.0201111392 43.9793891043 34.7849252227
13.6247663134 31.5711276365 26.9926412057
-6.1579861845 0.8525585843 35.1064558783
-23.2888776651 40.0889336644 -0.7813622416
-55.2408324306 73.6516914023 -29.6114686896
39.5475835790 50.4538032935 -10.8470609765
-50.3295228353 68.9068156268 -12.8355693796
30.3355474026 -33.1433620365 24.2255972980
8.0712236079 18.0594174635 -1.3759670904
-8.6475289297 56.9789096843 -14.4064332926
29.1874728349 64.0020398810 11.7813911497
-29.5244099146 63.6015042049 15.8515535726
-45.3821500242 49.6953172321 -3.7104785367
-7.8909157056 85.9505263436 -27.3864137828
-8.1094581602 52.0352511676 38.0753685622
23.8886782067 43.4743341306 13.6665669161
49.6322525807 84.6966365529 -28.0968509974
-4.3233584447 14.1670710399 29.8450858524
-13.1321606454 29.8798825813 -1.9315134925
19.6224447121 38.8393553286 19.3543322920
-35.9323730015 -8.0622010744 15.2734429810
-11.7802919991 70.8236418230 34.1574020097
-53.9491446601 76.3957524390 -43.2481730696
32.5050480569 -24.6258538466 13.2760161329
34.9057154195 -7.5050455256 7.8492785360
14.9344302147 -41.2104087109 24.2394104328
26.2466402885 55.6831314827 17.2936599372
28.6607431237 63.8242982655 -0.8744752181
-37.4266430837 -48.8421725525 -2.2445756931
15.6450156118 33.6194156869 1.3336186296
-20.1316904457 28.5477986065 7.9387081858
-41.4131611406 -11.9356815581 7.9823879286
6.2439908493 65.0217333586 -31.3846097597
-40.2924508620 65.9735027698 -4.7374500738
-39.8575599275 -2.1348981079 11.8934605912
-61.4132635632 66.5184988860 -28.3552630892
35.6012273557 -49.7222195818 15.3027329369
-24.3292007741 3.9466588902 25.7887721554
-19.3758447039 -6.3902967633 18.0359091101
-45.6377484822 56.3598119865 -0.0491468913
2.3302632419 52.6204478320 -13.8918478008
-2.7069321632 6.4938561352 18.8515665491
-19.5090869423 31.6969082051 20.3970521766
-26.1492674850 52.3238831142 -8.8029255139
17.0102669506 28.9401796665 20.1664347165
-15.3578893406 44.9899678846 -14.5117963228
-37.3951447485 8.2685933685 9.0874796089
-21.6902303287 72.0708297992 24.6467639064
5.3944761347 3.6191495604 6.6531744606
13.9021474751 74.3043478760 -7.4171745836
3.9738549470 55.7951511759 -36.9366790320
-43.2895636842 69.1270119107 -28.3143979147
58.4657073136 80.9769318742 -30.0180158929
-54.3735141155 75.1832917968 -52.7024683940
11.9553053633 48.5103408714 -13.6648892583
40.8493682511 47.4663411273 3.7480714259
23.2281790345 71.9194823115 17.7646774414
-51.1071811712 68.6489880332 -37.1212448582
-27.0615834076 53.4761177103 23.9235228543
5.5360266573 64.3932266667 -32.6289392657
33.6306275602 45.9301554711 7.9244257405
-60.5180774557 67.2853075611 -29.3549176076
20.8263718342 -24.1919004930 26.4336614664
-25.5423953320 -16.1929766084 15.1844791525
-33.5994097533 -4.3017716786 18.7682409704
19.4193607814 73.8748938584 0.9529053756
3.5488207023 71.9418850867 36.8508007502
7.1957695437 61.4867328992 -23.0642979086
12.0112413178 74.6848192928 -20.7399907242
-31.9872450781 -44.1138059688 7.7752052520
-28.7973018039 3.4801400909 -2.0025808262
33.6753515214 64.0924191423 7.5409458637
56.5947553378 54.7154501348 -13.6393803038
-41.2665470116 -49.5978803097 -2.4303686231
-46.2329045089 -52.9851285258 9.6620376442
-44.5726571685 67.4918517162 -27.2973980412
-22.9379902572 39.2814869001 0.9762107079
24.9001925503 6.2138805201 23.6279246619
-52.8979609405 71.5973783078 -18.3527983979
-32.1790506656 14.7442698999 17.1224421313
-21.9792777844 71.6016367237 -4.0670976592
36.2359820791 -53.8856569927 -0.8510560563
-17.3458583414 24.6897478244 4.2453623811
29.8093185491 -53.4642636592 18.4291065262
-11.1800707344 9.0126193215 1.8790756698
13.1135468489 -32.9259862958 15.7001747625
11.3770307601 39.4799160993 31.1771170645
-5.4935021599 85.6149120127 -14.0782738750
-38.6902473547 -39.7283443535 17.9973105235
3.1107534116 71.9997323644 -30.1792543979
17.9339668002 -3.5821011806 -0.7134071171
-32.4214234109 51.9288570902 -11.5915240577
13.9184259069 25.3158533981 3.8958637639
18.8899435843 61.9086887383 30.8186317834
-48.8415179955 53.2840443468 -4.2821661901
-2.9024865863 5.4850015290 1.9807831941
-25.1106602948 72.9373705601 5.5636973005
25.7778194843 -47.9282213684 2.4589411464
3.8396608950 8.1261201188 27.7312693781
-5.5112113180 89.1332998607 15.6963721011
50.9250453598 51.4661471116 -6.7392664516
7.0189365583 71.2740222631 -32.5812454086
5.0900327622 56.3321839391 -26.7308217327
13.2415471537 1.4880464414 23.0859324977
0.0358138349 58.4846765199 38.3917937012
-5.4337220260 -4.0304036044 54.8044047771
3.9751164605 82.0276974112 29.8359549472
42.7400256330 70.2045437174 -11.0526210902
19.9253001949 -47.1965471680 30.6106882310
31.3434201618 -17.6080417582 15.0173777624
10.7043139761 78.8150363326 -12.9953704043
-16.9536131896 45.8564144573 -14.0986870952
-1.8297705844 81.4279444754 31.1569365326
13.2440702077 87.8486627707 -27.4722874175
0.0269379547 54.3338079366 -36.4881148243
19.2293844211 -9.5684719837 19.8701047441
-8.1788845013 88.6837995019 -2.7197645188
-11.7679209410 65.9958816584 -18.5597225143
-8.4493882133 88.4903889230 -5.7168985637
-54.5301835509 79.1992074850 -43.4337689165
14.7233817536 -27.2548018633 23.6803396573
-36.2376700473 65.3625800739 3.1328921615
15.9724400330 -53.1792968735 18.3577977723
4.5275852956 82.8461446260 28.5076386336
-15.8804842416 80.4688331992 -3.2655541115
20.9392311081 -15.3019312764 20.0053484370
-29.3783718866 -53.6064350117 23.0813528547
-21.9749718152 96.0476224680 -30.8322448348
30.3546652506 48.3854899173 -5.9638134370
-2.9891248083 25.1696073194 -6.5423434403
24.3935754226 11.7534494592 21.8333126617
-8.7944714358 87.3642201326 -7.6370373397
31.1010984494 -7.6020510029 15.6393327486
-38.9281013636 -24.6127991729 20.4280876491
47.8963125826 66.5170371715 -21.9205696595
30.3609275097 -21.1383594836 23.5801440369
23.7579728411 -47.3110130870 3.6598868208
16.9643588310 -44.5980150811 15.5964793120
23.8199108089 17.3273983986 9.5162435593
-62.3053313468 63.5487533432 -26.9549308593
36.2259848551 62.3433125902 8.1493902885
-15.8257271447 78.1089815389 26.5990764117
-24.4679477053 58.4329133094 -10.3561236947
-31.5118761589 -7.9815890596 -1.6909779598
-35.0769111411 4.1271448800 -0.1313486477
-1.2590103879 72.1729712412 -30.6528875301
10.2510617061 39.9703008884 32.1674311163
-14.6147571850 25.7079770868 1.2210851466
