-10.3941357907 -39.5147113007 327.9530701880
-31.9494889954 37.0067302790 432.6898742277
109.4368131708 31.8393218921 276.7267197424
94.0788595697 22.3793055523 304.3986142719
-94.4691597631 -71.7618506104 347.3380857035
-51.5017120883 -39.3564641810 347.4315527911
17.8717961932 -84.4042009464 224.3157492341
-47.6996942512 -91.3656682693 273.0962524375
19.3658554302 -47.6426043530 289.6180032560
32.1476786171 -57.7537278057 321.8875199774
-13.3908983335 -50.1909795375 302.3133184601
56.9969724506 10.6076566148 306.0643612141
-36.2488662750 -34.5775782351 331.6599890028
55.5945311004 12.3346637059 318.5733848069
-39.7269069885 -57.9050550510 315.7842568345
33.5334976099 -42.8769243274 263.4824117771
64.0988582071 -45.1058200891 241.7981591664
80.3126448587 18.7908877058 296.0805714293
68.2857169990 -37.2930871316 246.7276430771
11.0762778136 -68.7839634844 331.3629551603
-18.7068258521 -19.2014907695 370.7842519673
25.1753065549 55.2932425050 385.0396046061
-1.4318864676 -54.0914452356 288.1223946985
2.2780906627 -81.2591222661 253.2743343682
-108.7656343414 -60.3830910967 352.9242910253
-66.3845072833 -67.0742850850 327.3512538478
-79.0304510314 -64.6787348955 332.1796177907
-22.5098962963 20.4812358303 404.9838194048
33.4659210250 16.1680161575 362.8698296129
-87.4470691901 -43.4319209571 364.0923330821
-25.0252427226 -41.3757944556 383.7420433367
-81.1245300204 -72.5892182769 324.6832243861
98.8177798775 12.5704608897 254.1598282192
-30.1064965487 -88.4534121502 263.0480744450
47.2571788300 -37.9091646748 337.3514023524
-82.4956289225 -59.4892736628 349.5816006459
-102.9499917358 -46.6652421088 373.4997529587
74.4347477723 26.2941405389 319.4294359968
-7.7987660044 -71.2710171155 344.3187012770
-28.1757438145 -36.0091087300 342.5101462289
-74.7107182117 -26.8209188184 381.9327137867
-31.3724055821 -50.6478013638 308.5046769701
20.1648023424 48.8076660615 391.4205388615
111.0589326092 36.5505968835 271.4260559621
-12.7542554221 -91.7280360936 247.5964268264
-40.6804629603 40.6056208538 423.4758766523
7.1836813067 -3.8584096676 383.4033605565
-5.4129459129 -70.4181543890 343.3647554654
-110.7373457986 10.8712153434 423.1099653059
45.7565611887 87.7727294238 401.2416788764
91.7351759044 57.7263860416 329.3982411436
51.3596272562 93.0950584761 390.0743558742
-45.4965118382 -97.5608041350 242.1653985046
46.7646978758 -8.7080068056 292.1412923128
-23.4595805193 -23.5293445730 372.9250888962
-36.9213672730 -95.9652350200 255.1198947777
-116.9693904260 -27.9949218455 403.2148444331
66.1068608439 -17.6989027297 279.6558191474
43.3001953276 7.0440598958 361.6808350200
1.0302123417 -62.9732189570 342.3874168698
74.2283486997 -6.2207659566 287.3816011301
-31.9379325377 -46.5652693221 323.8767673672
92.4446588940 70.3372982005 340.2885136933
72.4586714939 -33.1140927095 224.8090371128
12.6513036042 -44.4226667740 288.9547361330
-20.6367057127 53.2381021857 431.2241821160
77.3280670986 78.4458293677 353.9661883209
92.9984205165 54.8588925403 317.2157129566
42.2116094983 -10.4698913066 372.2135052985
77.0349535115 27.2567629858 318.4115498082
-17.6913378267 22.7579245625 383.1176824871
-105.8525498882 -78.4914644756 332.2345840355
-121.1916469639 -80.5317754210 337.8739715992
-69.6879187056 -98.4842456918 279.3977411310
-85.3917098761 16.6071523226 422.6880808097
30.9467607734 25.7301523280 355.1372888317
36.3467628379 93.7330150546 409.4317202278
-39.4694496680 -96.4179640623 265.8794561084
82.7087538825 22.0695399109 309.8451985880
-43.5046752592 -19.1877735497 356.1347984065
93.4314632874 50.5820239767 321.6501272203
97.7774207957 11.1592424385 269.7778464655
69.8790632786 -22.5773875565 273.6894895418
-47.7774925528 -59.0258357468 312.4183971340
-20.2943915523 45.7460462194 421.7276658211
9.0454856592 -60.8220170837 336.1095987109
-4.6378515869 48.5179161816 402.2651812090
-75.9181117628 -55.2194231205 340.5831421951
20.9303090415 -81.6547410977 231.9226494931
-27.0125575094 -86.7549821329 253.4385017587
-42.3022881037 21.8717528174 411.9187963510
-118.3979472174 -79.0685903966 343.1656881700
-77.6232611048 -37.0278311066 363.2983552927
77.7028085652 -10.4487172380 282.2935757268
19.7448228909 27.6681117856 357.2589253761
-130.7923963329 -58.9099557566 364.3192658443
9.1650072018 -42.8191336429 291.9557204730
57.3866226368 82.4999455896 380.3426726358
80.3443803862 -10.9360831327 279.5127457495
-112.2902801950 -57.5300813763 369.6724336762
-47.2265113213 50.6825039734 430.2544751372
-81.6061660198 20.7257271895 423.8742911672
32.4632438681 11.8222637087 371.8365750913
20.9554248907 24.4060564911 352.4018257491
94.4673632457 52.6362822774 338.4491781217
25.9086903294 -9.9991676033 317.2096740866
56.4593719375 22.3209596633 335.4070521197
55.8045922728 64.0783907186 379.4222126843
-110.0005707927 -53.7078357217 361.8464925899
96.5174709513 59.6011041807 334.3227019183
71.3185195725 27.1373765720 322.8697272118
-49.1301589287 -98.7812946272 269.6425866805
39.2787729931 54.8796467600 372.7256340276
-30.8929718892 -42.6223842106 372.5565058315
-24.7040648005 57.0367547306 428.9630386494
-15.9821964079 43.9381229522 406.4446682783
-18.1955373512 -61.0810422222 293.9791943311
101.9927490267 49.7132098730 305.5115500848
-44.1993341484 43.1647230445 436.4488983520
9.8266857848 93.9881015534 420.9494365995
-4.5779523168 -48.9240457979 309.7305237359
36.2633930030 7.6938619744 373.8873854197
73.3128266349 49.7413813064 337.9947715193
-5.7983122509 -79.3602055354 245.7138104886
-40.2286016343 15.3440660612 393.2471658182
85.6803237212 6.2766328505 277.0503261695
76.0888345112 -28.1817953479 251.1762129297
-7.7628300032 -57.3525998179 289.6190156311
-113.9543821069 -79.3927862477 343.2602372263
-68.5032874969 -77.4307477339 308.2288243711
60.5954452399 -44.3934084227 246.1896625984
4.3460755244 -81.8494368351 221.0211983067
27.1829542810 18.5615464192 340.4552409005
-43.4315000347 -99.7945492739 245.7539429667
38.4969018591 -3.8667778559 384.9508962137
42.4366033073 18.0475839530 346.4873143628
41.8992402836 -17.6938577957 315.9305700172
62.4675804806 -32.7136105043 265.9096754763
25.9754329132 -55.0324609369 275.7488319069
99.1133445126 46.3636292937 291.8361690795
-124.7577790950 -15.4919310256 405.0782344877
-79.8627888778 -55.7638932302 351.8744707518
-17.8497051116 38.7110106961 401.8784455305
-77.4150211909 -13.4135388937 390.8461132428
38.9357373477 -55.0418706621 241.2004098251
39.6605444543 -61.7547928410 244.3880077182
-45.1049005336 -91.0480987476 269.9366334202
52.4681227609 -27.2653963154 265.9719192072
78.0575793255 -3.2590122325 288.3199232700
93.8462102897 23.1747491891 269.8972358019
-64.4522822539 -41.6170664438 355.8459487741
-26.6935540963 -19.3252722405 365.4847904881
-107.7815375660 -33.2783521770 384.3287455998
8.4150580285 -71.3641799063 259.7558790297
29.6593823756 -70.3915453130 220.7044623662
-64.3850202036 -21.5545002342 370.1204794385
-31.3265401454 -88.2417096150 259.3709572965
22.7091292795 -32.3440450375 284.6205743774
28.8410190469 -46.3319234191 328.7912183874
42.3104534002 -15.9674542582 341.8116893292
7.3083981894 -32.0880486669 326.9428011573
88.9550636911 26.9984373082 298.3599389139
-79.9173584292 -98.6635803938 272.0140555790
66.3332491883 70.4109398716 378.1517253439
90.1632893580 -19.2104584522 229.6800795329
70.5465242690 -40.4221526941 243.0234741231
95.9345830538 17.4769371608 299.9282576988
78.6409128615 -32.0069721023 233.0139537707
23.4464524419 -72.6130917398 211.8191193629
-9.3884681023 43.3520615867 409.7401406024
-86.5979924149 -29.0780617022 389.4055324485
41.0022233979 -13.3353668939 338.7954156580
79.5009213537 -4.4110672755 285.6463101698
94.1312950398 67.0687606213 337.3112734328
35.8614913427 66.9877261838 399.7298763611
-37.0536908784 41.1004574351 420.9472783842
-2.6640396685 77.6794872354 423.0995807262
72.5472103519 -39.8313188317 220.3634822230
-64.9207659402 52.0757625662 436.9647670724
-53.9823759913 -9.3812599756 384.9787127708
-54.8990848993 -58.1228432300 328.2614648255
-46.9534511337 14.7104746527 398.0910445231
-100.9834257600 19.8222280474 430.7391652922
-18.5111525701 -28.6193324628 348.3552637613
4.3067286325 63.3204468650 422.0605553184
48.4455363762 1.0145791608 361.2786889977
74.1336226358 -5.1645424526 273.4108607482
66.5805674556 48.8723464949 352.1061545048
105.1608309734 28.1764764509 279.3633599969
100.0863258744 53.4012012601 322.8658373249
-65.7934067459 -7.5587445089 387.8179860536
-67.2156227510 39.2638389059 434.1371143065
40.4421170053 43.5160117668 368.0321709056
65.0162088339 -29.8758538744 252.3840458469
81.1213622036 37.5173536470 326.6547121797
87.1432803197 3.0458448428 252.3025416594
-74.6945587930 -36.7276904685 361.2118086563
82.3573921236 -8.9768247217 254.3003766709
-35.8665691184 -44.0146489125 320.1451526669
6.6648205371 5.0941530924 366.3495023982
65.0735421194 -43.5400915508 227.2873494950
94.8874359288 63.1147464784 338.4466641420
18.8349977635 -1.4325664608 378.5178720850
39.0712385920 50.5034717303 377.4578604557
60.0034210904 -5.5198014271 294.2447887293
-24.3289770747 70.7643157573 438.9999981428
84.7260620650 -22.0494161590 227.7676759903
-60.0358795161 -59.5645972579 330.7334907530
-47.5603760056 33.0401199453 429.8618135190
-16.0638000352 -56.6231681329 297.4366222332
-28.5638246090 33.8256338585 405.0922360067
66.6202582780 30.4901620080 341.9935625679
-69.0499900573 -96.0112094454 291.9077217483
-38.2501763861 53.8976526696 430.3366809651
42.6806229963 14.5107204211 333.8410019350
-28.4889568342 41.0307199540 429.1862126242
46.9765465221 67.4466767216 380.8681732599
-32.8870214687 -38.5805971157 371.5718979670
-47.3168452157 -100.5425672919 266.5335170414
-3.2812280853 -45.6235713440 290.7703539169
63.2675539203 21.4366271560 313.4461873747
51.7546000102 6.2097234365 314.4649793323
13.9667458113 -43.6719569301 306.6184259414
-49.7712103801 53.5889382539 435.7280067012
-109.1488828461 -70.9493803001 343.3293728181
70.6194466583 -25.3339496896 252.0966196538
-25.9241034318 -26.8324938082 356.0524422247
-13.2898478102 -79.9733874856 259.1106627454
87.8999379119 2.4579004974 270.1786534527
96.2683857396 6.6183003159 262.0075260373
-14.5763125381 -39.5492174310 343.2369578803
-40.3996290658 -51.0414366634 315.6248263918
-54.5207206541 48.7316285845 434.5130688483
-17.8073043489 60.1595738422 427.0666587848
-13.7975695134 -69.2263276702 280.8077946662
-50.9198151112 5.1275754327 399.4937237605
82.3118311173 74.3685304818 362.1716844484
-92.9240788545 -8.0739305847 409.5079547811
82.8708988430 76.8232910988 359.4576719920
26.9593513247 -2.4757556645 316.6416802252
74.7723237939 34.8610170980 328.7169294327
-111.5823020857 -37.4111415917 392.4333489140
-89.1633732143 33.0910694534 436.2164282162
28.4544904357 36.0858110447 359.6278533519
49.6485084038 -16.0397889626 361.1272944580
-32.3677685601 21.0431327520 393.3700121366
-51.6653741106 -103.6500300674 266.4431347763
-23.4482534347 -93.5293430001 246.6962806894
-14.9740093551 -51.6083152465 342.5583194143
15.1717722129 -40.4891434508 281.4072728946
8.3509784886 11.9730621273 367.6011437233
-79.8003235393 -68.0258763299 348.3699806555
20.0882696824 39.3616289089 370.6000019202
-49.5671054988 -93.1165473552 282.5495305542
34.0914633309 -51.3597157498 268.5278355330
-3.7229144989 7.7825252408 386.1001812888
-69.8398466237 -41.8324430273 351.2230726436
84.2683034149 37.0489323443 323.6276415429
-43.5603207773 -104.1432979902 258.0762545160
42.6972211085 -41.7912491391 335.3985741112
-76.9441615947 -72.3568484264 338.3866074042
-47.1091042724 -27.1898717928 358.2954979136
-74.1042120897 27.2806222106 435.4630846426
-29.0562681731 -102.3500203851 237.0255620923
12.4390261059 47.7571234319 387.0035967702
-23.9870589658 25.6428959690 412.3571856326
45.2419529908 1.4667659668 330.2785527819
31.3945888961 -56.8893816164 328.3175255166
-84.9721389627 -100.7773560554 267.1251222794
-29.0142991503 -12.6552629697 364.4174316219
91.0197032320 -27.5051176567 231.0306109810
-14.7353139267 -18.2956709384 362.9658239668
11.0208655769 -29.1049219395 298.1091720707
-16.4509043433 -37.9888680728 346.6668620419
27.8871602707 -62.8950381423 264.4335258915
72.7208319000 90.8681260385 373.2668204761
46.5003389762 -39.3556779228 323.8100170503
-13.7614921352 -60.1927874326 282.5010163098
10.6327602400 32.0995541304 370.1097792191
-51.8037137195 -91.5064935194 286.3506879797
-39.0163599882 -69.6888940891 301.2793743311
30.6053925632 -68.2012640134 243.9907205970
68.4846470203 24.6816008345 322.4642865299
-114.0578858661 -55.4088486129 365.2714584310
50.2188204836 -7.2902446734 334.8046373944
-47.1431079590 6.2788052203 388.3849152054
39.0221718899 -36.9946045953 316.3799444843
-12.6157104378 50.5602649113 421.1161940729
54.0897608352 -25.0045803841 346.8415848294
50.7264078928 -46.0980001231 243.8731811450
-33.7564358128 -19.1577689820 355.2449611559
-105.6130853174 -22.9111336524 404.4403807845
-26.7839762219 -82.3806613127 267.4763706414
22.1401566880 -0.9599703048 346.1251638789
50.5865393202 -19.4367712804 356.0865290217
79.7785842467 -0.8859830246 255.6010293165
96.8904146031 7.9550745194 253.9038667907
-47.0979985509 3.4900187205 394.3312280374
-91.9820209102 18.5329101065 428.1218981988
-24.3912213662 -50.2739973825 323.3416403365
-24.7684631285 -3.5253111992 382.4607355076
102.5184044555 57.3657627076 307.5039446875
5.5615492300 -40.4501553716 301.9655110777
45.4573608891 93.0136182430 402.5028329395
-59.4481683839 18.4911867430 413.1851697057
-124.3496572201 -63.5113836416 353.5239721717
67.1395048457 28.5658745518 318.5102919701
-37.8616693834 -72.1102654366 288.6995493423
-30.0668152574 29.7419148297 422.4199732344
-45.5341504852 -86.6897793022 278.0798640583
107.9382954911 -3.8648042993 256.9804839436
-98.0801607720 -14.6614204231 403.8419134825
31.5022863052 21.2578263342 339.7183650910
-16.3648866492 -42.6695158395 305.3053673961
47.8354291616 -9.9664178948 326.3155232181
-45.5053330073 -83.2102632048 290.6835093608
-83.4763316993 -82.5239002825 314.9039554481
4.4522908305 -42.3273868553 288.1742273522
-108.5894805120 -6.0070654516 419.8373977329
-110.7835125643 -57.5011857655 358.6616787972
-7.9666415439 17.7961019240 369.2000581399
-20.0974504066 -59.6366083967 368.5229137390
-121.1502404542 -78.4660032862 325.5911461223
-32.7008554462 -10.9268985546 377.4118378418
-65.9575152233 55.7246105871 438.6601260365
35.9407403671 -2.0548097217 344.9532820713
45.8061677288 -18.4384299153 290.7362020506
-23.3672345241 -34.5988749869 344.7276239077
-114.4255578900 -25.9394149120 405.0505533560
-75.3241643920 -98.6891059523 283.3466849880
34.6170638532 -46.1814377731 267.4268400890
-73.7714508598 30.3895901597 429.3011296968
-99.1853225246 15.3856498451 425.1942051143
50.2875255154 77.8909372774 390.1760974136
-65.6574780747 -8.9240580980 395.3598430639
-61.4628854378 -104.6570321358 272.7043469822
-127.3911276427 -62.3503686203 364.0030154752
55.5634626049 -13.6067572963 279.2502714938
18.8116678899 -46.5265240056 324.9370581388
-98.4266013484 -94.2362547359 300.7411889434
-3.7099626532 -88.7800986883 219.1070929645
-128.0500008313 -23.4418015876 396.6160684331
54.5716572250 -44.7526279100 252.6946345062
-42.2804024878 -102.2815585076 237.2386482852
-74.7557797516 -4.5020340732 399.0894305686
47.5949671371 -25.0594985379 346.2550279465
-64.0196978522 -85.2943648597 303.8817248388
44.0216497180 -17.3357889667 344.0579212549
-74.0239524331 -85.3109455659 312.3663549162
-74.5301023654 -86.5885187722 302.5494484249
-70.6281730555 46.5172328167 441.5052300981
22.1069628455 30.7047614713 358.7380078406
-2.7450076424 -76.8631839728 262.5635381474
-57.0511678593 16.9363871653 409.2995014071
-110.1089324547 -46.6573581453 369.9764301035
-60.5140322371 11.4960597366 405.8049644822
-11.2629717134 3.7769720431 386.2376846038
93.5072654953 73.7269491201 327.6886813006
-124.1993547375 -68.7790079034 357.0267221066
-0.6430690622 19.4466634251 365.4787146188
-71.4004144486 -102.8673753189 283.6288151507
90.8127680085 2.6232351387 283.8948284568
43.6979048188 68.0082410954 384.2981179869
-4.8943514529 -41.2668366636 333.0182061653
-50.0672179867 15.8789675093 411.4907580290
15.3625034389 -72.1287653120 253.1355975470
24.3200828053 0.5477935915 357.8197393602
-107.6065871940 -20.7159909892 398.9257902313
-66.3000998458 -2.1503472548 403.9714459447
30.9932535830 -50.8034494056 256.3022514815
-18.9698127541 -91.6879632158 256.6021411215
-8.6673633157 -51.8009716850 335.4295344311
9.6131142079 64.0856502373 418.5071738670
3.3393801463 -82.8509403560 250.0279914186
-14.2318996538 -43.7119704816 302.2789810416
-22.9358833158 -85.8468385501 271.6231370505
26.4141243837 -14.4080009838 317.8341493654
-12.5497170846 -7.7281544795 391.3759346265
86.8786678785 31.9756832816 305.9250020129
-11.5035838770 87.2260302261 430.4864465586
94.3507790055 2.9945623199 262.9451607711
58.9516740930 16.6547176513 311.4964301998
1.6986418091 18.5410152943 378.5638974107
81.5201900032 -36.4220423555 230.1459769758
21.0789519940 16.9810072154 347.4383597280
34.3734461905 4.3413049743 317.5938347175
49.4530576548 95.7234030686 390.1931793467
-25.0087245929 -47.8660384069 316.2031299609
-19.1603883186 -94.5539232995 238.8022517538
-57.4893917280 -1.1205086298 388.3461491761
35.2438413055 -34.0766148268 312.3552910812
39.0453874329 -42.8438933978 259.0061231110
-58.8267785363 -88.1757001670 287.5058822501
101.2234181664 52.7871513892 315.8937179232
81.2245112515 40.2082999331 329.6069780100
61.0716919890 26.0154200276 341.4240160438
42.2023741981 -9.3455605176 317.4968016130
8.8050396152 -63.7886503398 322.5721393034
-65.1713333227 5.6007455292 412.2799439452
-21.6001846688 -95.1561454340 225.2395941655
67.2319686980 -32.3985338013 262.2126598592
29.1864489572 -60.8818673171 239.5403265485
-12.6077370062 -61.6359646775 359.6825245931
89.6703150525 19.3752212078 272.3453511004
-0.2454824615 30.6628339013 377.6443361792
24.7893345931 12.3101940501 350.3000085681
94.9448714305 46.1101230551 315.0543700957
30.0253389124 -45.3968595742 279.9708451232
-68.2414348179 -63.4579272876 335.8921593677
20.7495051123 19.6373437937 371.3249063054
-27.1168976244 76.5509911530 439.3015367364
47.6291171729 3.3429208559 351.6149023523
114.2825674353 34.9681771586 270.5690416506
26.1239904141 66.3076464502 407.1132253055
101.6405642777 42.3368433186 294.6627938594
-14.4988992787 -47.7575370886 305.9601676011
15.2206829461 -1.2800481366 394.1548804572
-34.6047275987 -25.7112337678 344.6116473940
-43.2970208970 23.5323948003 405.4357815232
7.7841780305 93.9894572585 422.6939568676
21.5000101581 -54.6525065720 259.7677424764
102.6468516872 -7.3150306661 257.1783042538
47.5617248274 97.6962050941 398.7206196803
-8.0550817731 10.1108371081 369.6385509421
19.0843729826 0.6579602734 362.3707924515
-29.5795137917 -33.3233692971 335.8083190184
95.0488737946 31.1737712078 278.1050352865
35.1091189600 64.8259637288 397.7821405593
-4.0262891969 25.7518788518 384.0284452454
-19.7163225199 -33.3818042984 374.2337462432
55.8941574319 -31.9860117151 267.2823176919
11.8522089700 -81.6673653626 226.5504412233
-89.2099377925 -20.8946299139 392.1428635582
-51.2734472419 -34.9384601835 352.6139329978
82.6680881634 -10.7636417543 275.0562692602
38.8231000732 -10.1548002486 312.5137617164
57.8686433924 85.4909655919 390.1081366253
-93.0361855795 -50.8086624086 369.1994179214
-33.2756665913 -41.7357151220 367.9653878681
-7.1417159510 -15.2096212029 397.1567759537
-17.3386814464 -84.9370237309 256.5523828622
-14.4322262846 -38.1010808273 309.1242915076
88.0671939337 -13.5018002149 251.0229026793
-14.3287951913 21.4112983987 389.1942589084
67.6248947605 68.4951733697 364.6938129166
19.6354097881 -75.8127186728 220.5628462933
-40.8165511657 -10.1180840993 364.4145555535
-92.2713453375 -98.2373767075 304.5082179286
45.1306382294 -20.8235876377 344.1465156246
4.2522495662 -52.5209066227 285.0524990091
35.6036326882 -4.7678295455 386.3580200068
-118.8896684630 -33.3889192168 391.3463461629
-93.5142919619 -56.0060771689 354.5098482346
-18.2266777928 -21.4044376294 367.7703863222
98.7919173581 19.2727777207 261.1554889760
50.9525238861 84.0270474562 397.2010694481
-82.7414590486 -78.7746114042 327.4160596680
-75.9304330217 -50.7132202216 354.7343589171
-98.7105888717 0.4375932609 423.9335627385
60.6841277764 75.0537902218 378.2051661080
17.0320526748 -67.2174493915 248.7446316319
36.9533083893 -53.4484451444 327.7012522034
48.8999558898 46.3740109399 354.5060271702
-1.8365881490 40.9186306289 400.5562241207
62.4549157141 -11.5556691423 285.0471673406
-21.4064845217 -82.3987396513 263.3614336413
85.0655789333 81.0230712514 342.8050438668
-28.2968613355 52.6734870576 435.1738111802
94.8924832454 4.7701800357 276.2346946315
23.5798792936 -76.8930180176 236.0162031495
-56.5840510289 -19.1459911168 375.7467677742
49.8903513984 -10.4777158927 330.8705296926
-68.3456094827 22.0276213939 424.9473673741
12.1575937992 70.3208981729 413.7568118874
-122.7812853334 -58.3646459181 371.8651988750
104.6276694737 34.8984303567 276.8669107529
89.0479945939 65.8099250345 350.4897208275
-91.3092451814 -102.9526127331 281.1899847597
2.0424621683 47.1495021628 404.7571008823
-27.0271006036 -30.9238987603 365.3635834951
40.5992763785 4.3148606688 373.6219507268
-87.1877500521 -71.5309155438 330.9815991222
92.4653846578 61.5592293377 343.0952075388
-25.6833598980 -50.7909105442 303.5306288436
13.2591372482 -64.0810001342 264.0880770769
25.5968167194 -26.4926218712 302.4238660142
-70.2056955663 -85.6239415283 308.7557468891
71.6657926515 -19.5389016832 274.4474646365
-20.5217219820 71.1431200027 437.7059180827
1.2581807491 91.7978781555 427.5558444294
48.2178664637 -1.0788510744 336.4956264988
105.1418314578 14.7284150483 254.9365055247
58.8316419625 50.3784050145 350.8398891310
-132.0942047284 -49.7690817348 369.1742779917
87.3863834247 -6.5348515669 270.1780500321
57.3596622764 -6.5309250988 285.8499596844
61.1374873284 21.3543517178 324.4718982683
-109.1509728510 -91.8867810490 319.6802356387
78.9495043997 3.1989062024 279.1185133786
-63.1552358920 -104.4708842621 251.0468605968
-116.5780822213 -37.9705292724 386.6612778241
-37.2194516679 -16.2733879256 354.7393285636
-15.9353322995 -24.0207032239 362.7872424342
0.7808797250 -52.8191437903 312.4620130897
-88.8124443583 11.1569593188 429.1015369430
-10.6872236074 70.9699951418 432.2167954568
-19.1600521801 -99.8564195440 234.2953091448
8.7914029180 -38.9245750392 300.2754251637
-47.0379527691 -97.7798970799 238.7988208063
-30.6436812282 -71.7365220354 291.8432588494
-35.3796795470 -95.9009056340 262.1171397600
11.2110384631 -83.6870085391 238.0312251771
-11.3364891922 62.9813808186 432.1375376442
30.1976838542 51.3745272423 376.1237944612
34.7410906795 -25.6694488260 291.1773805758
71.9642634766 55.6523173248 355.7029260013
-64.7024838315 5.2688644989 402.0152174412
29.0372516279 2.5994133561 320.6223330195
-83.1093687858 -69.7669785579 348.7238829670
-85.9455980699 -29.0119212829 379.7579222670
69.0462250280 47.4937292240 338.9545022837
-43.6605798845 12.3305608939 401.8121941089
23.9888195947 -6.6183029250 338.6921522918
-79.8295045755 -1.6872390772 406.8795219781
16.4296119179 -30.2438089395 328.0477666915
36.4974686685 -34.8215743230 270.4611509495
-124.5035473349 -39.0406562286 391.5193727931
-96.6449765857 -15.2786409416 411.2260607940
-48.4860470867 -17.9945651424 370.0642375683
30.9189629059 -5.5049600793 325.2784904962
-106.0506166112 -8.6595012243 418.3295630338
-79.0203096155 25.9684449418 436.4650708250
-24.9958034654 -83.9815320814 275.1553771832
100.9281991527 -12.4626729577 246.6686821074
29.4737250111 10.7841284534 376.2451987885
-112.1714582633 -47.2767439610 381.6023569052
80.5543752698 -10.7531250105 261.4172007587
65.9749099119 2.7494239819 289.5224029267
-79.9777172204 -21.8259509446 392.3361519624
-58.0197334050 22.1466713476 416.3238299844
88.5599922683 4.2697626359 268.0694014987
-108.4183421224 -94.3632396564 311.9198638699
94.3923990283 38.3060535496 286.5293367793
87.9450544234 -23.7367184752 235.9213338391
28.0056984452 1.6319565932 323.5807148417
-73.6508333992 38.1928528509 440.6411303656
-47.0347896129 -82.5772524567 292.7073619904
-51.6536480890 7.4171287658 393.4492977575
91.4137362842 75.4238876423 331.2434692107
79.9507649274 -19.1940752259 267.4308580906
-48.8825390695 -40.4352044197 335.2761010622
42.1908835826 -62.1586384406 212.3587647646
64.2953596773 -25.9144067794 272.3185567484
-12.2698443007 9.1904324270 369.1132314735
-55.6470262648 23.2281709394 425.1670221306
27.3251255127 -28.0990236165 285.7180338389
-95.1368826143 -35.7292755849 388.9940789249
35.8067582420 -24.2735894603 328.7140177660
-34.7073540537 -12.2862699009 375.3699337802
-6.3404228390 -45.3770156426 329.3638584610
39.7118095010 52.6402067928 379.4570683170
-36.8662522631 -25.7813833155 371.0803832490
-117.0934671870 -47.8639736373 383.8724619339
32.6884664652 -26.5857409034 283.0506576143
-31.7570107927 -53.0057873004 314.6600525669
-87.1824816186 -90.6179427670 302.5622696692
-2.2123618290 -59.6371073397 273.5363130122
90.9116948461 64.9554328995 347.0752694477
-30.1070851572 -96.3688242501 256.5345570803
15.0902978064 -25.1230628308 311.9107541544
47.2484367870 -33.1595304607 263.4611972597
16.5016091251 -24.9808118680 322.4531335312
45.1444843276 -58.1657762933 240.7536761975
-83.0381638899 -57.9438814380 351.9411061726
-75.3546224487 -67.5223571909 325.7632592646
-31.3359056549 -95.8221027354 227.9403103271
72.4933330944 64.4944356274 355.8881680466
101.0564919570 23.0193488864 263.6228182089
-46.0690591673 36.9824431562 433.2642771965
57.1005742536 -21.7032041612 348.2001523531
-59.8261626850 -4.9214892033 385.8681134794
-5.2204585482 -63.3327340343 326.3775483447
-53.2595940637 -96.8935491007 245.5909795856
57.2900366113 4.2411757900 298.4285556617
43.2448000104 -31.2818379386 277.9222525456
-49.1826235091 68.2087983232 441.3710333955
36.0986719246 7.9305909209 320.2992681097
-96.7855234783 3.0171841918 417.7043230457
39.3699703956 68.2968541664 398.3493772060
-40.9620706500 -21.6475017605 351.0582430696
44.8425603345 4.9583162978 362.6897758049
40.0667702706 -35.6822831762 275.3753292865
29.4913214025 4.8894024599 346.7569052123
53.6317897155 -43.3475776040 255.1724770997
40.7163977954 -22.3652334653 314.7390204997
-76.2655205574 -45.0489764852 361.7495707056
33.4821546576 -1.8411235897 347.2383250497
31.1945021199 41.5878672026 373.6148959973
-12.0862830153 -64.4231967524 333.6389200961
44.0535906252 -34.5790375607 264.4627826688
-43.2517899029 57.9344349704 441.6909012545
-114.2698902801 6.1256775474 419.3089466051
55.4434189820 -1.2813239580 302.9293408554
-121.7505423428 -29.6759008437 393.2293941159
-32.7044204028 44.3058178637 434.0258308837
51.5578908269 -23.4302115236 329.2448982753
12.8806089056 -55.2296449696 266.2208732674
0.8258081484 79.1780505112 421.9544882485
55.9040943393 45.0406810272 356.6817800401
72.3081178054 67.5839241592 369.7688072659
-3.4066627483 -39.0768504024 334.3496265010
-76.6888652833 11.5394635464 427.5099759115
12.3494910385 -72.8886107248 244.8534740525
-18.9548586081 -46.3337412229 366.3602698768
-99.9518717783 -56.0155261039 368.9678985902
51.2320605477 12.8577344975 322.5668638391
-82.9331656463 -105.3039027517 280.3595912491
94.4586391670 61.7783693763 317.9374582313
68.0747859801 80.7928494407 366.7051452043
-69.3896832195 -89.4721023193 287.9043417804
36.4700407402 58.4129446628 379.0998676882
43.2148755282 -34.2454843910 319.4254085198
-30.9735995585 -92.0235786457 253.5724345603
-39.7694814536 -10.0242931156 372.8813161237
-92.7419439010 -96.3705912502 308.0866800111
-61.4999268001 -8.5880404032 383.0121073067
-37.9801039334 -101.7747094855 257.3852212394
-23.9043985231 -63.8851023593 286.7066876154
-53.8256394273 -100.8551037836 251.9007524151
-51.0640560475 -20.9494150029 368.8425768923
21.5067572551 -76.0995082810 223.2394098585
-130.9664696419 -57.3200724758 359.3330171992
40.4331451201 -54.0618771957 244.5495961532
-115.7136003269 -78.5373587479 333.6981961230
11.9580826764 -35.8947141570 325.1218414867
96.8042363056 -21.7001034718 238.8242806010
42.4302476949 13.1165962976 331.0184690681
-23.3703771412 41.1395965490 409.3665371613
91.8937225257 78.3036671318 340.6729774344
46.4565464532 55.7391851916 367.5282701645
-96.6095915313 -87.8485590930 313.8864042079
48.4053136591 75.7992701228 389.4831283974
20.4619837258 10.8207535091 381.6939070685
-113.5912409255 -16.0396175897 406.5769021664
-84.2926300430 -52.3180484298 359.9144375423
-32.0331059315 -81.8445381077 272.4963844705
93.5249406382 65.6539384681 341.3126749370
77.7238343396 -39.3016040432 227.6007047910
-56.6776139028 -55.0787936919 324.5333765435
1.7207693917 91.2560433127 424.3977224377
-107.3946963451 -43.3880236796 374.8858183983
-74.5286502497 -70.9298584126 338.6921753170
27.3274020942 -61.3829982764 326.4560552226
-44.8315481791 -49.1448276414 341.4555753795
-63.6370728779 -31.6566913303 366.8912797715
-72.8276958337 -25.0929415735 373.3031926774
26.8152419378 -3.5583633721 319.2108881091
56.3548368730 83.8341025115 392.2549630351
77.0511535441 34.3316599555 326.3232352292
-74.7963604064 -31.4327526884 376.5637443066
-89.5885632400 -98.0460942667 287.0187433074
-120.2149967101 -62.0480752123 359.2109409644
43.9910495086 73.5821409967 400.6964264956
-114.0846566379 -24.6194619969 399.3349196940
-50.5406869629 -101.2680023289 254.8153591196
-5.6901210750 -82.5845697195 242.4990169828
-12.9931803413 72.6380504151 434.6005624643
-0.8678430308 33.9367831080 391.4461460435
-55.8213844903 9.7221394377 399.7192251669
10.5590411951 -62.9722406578 336.5759130265
-79.8351733760 -11.4014151452 395.3010542875
-76.1696426610 -34.1337057026 374.5520270398
45.0065622208 -66.5929402466 230.4102619539
93.2589802467 -0.6847147851 263.6409137587
-12.4205700158 13.1678281697 387.6280839104
99.7931366273 40.3872120500 287.9576317257
94.6105995310 46.9023032904 303.6710188633
66.9184584927 7.7300256471 294.5229852237
20.9562819712 0.8120121709 373.6383480318
-105.6999065632 14.8784426846 422.3444359851
-97.1393302106 -78.0160228384 338.8373475744
18.9645662842 -56.3274460843 330.6065669207
76.0872649974 68.2282483443 367.3385438451
-59.2606045197 28.3202775220 433.3680639072
30.1712384834 96.0168043119 406.7888841229
-102.1644418178 -12.8814770052 412.9317780779
-73.9017540417 -32.4824710880 365.5363063610
-47.1637184545 -30.0997061651 346.0688324776
-22.1038193066 -57.4597163153 334.0117342086
96.0832720117 36.8996405446 303.2014488110
-90.7035832247 -57.9199155938 358.6735299928
-128.0052691480 -52.1705755461 363.4724361989
27.6762151453 10.5577196530 340.8807675469
-96.6592245406 23.6855039661 433.2573692795
-52.7485917670 -42.6069811430 335.9657504865
-38.2741068637 -22.8861147412 369.7844170417
-80.8189809137 10.3145256206 420.6911985987
-58.2122416737 -99.3230437064 276.6869776067
-28.5763306039 22.6337306651 392.0165420853
-69.5740847205 -57.6011225475 348.4498919149
-76.3484678380 -54.5235965143 350.3715121199
-102.1175469100 -42.6571873770 386.3678795807
-89.9247568404 -97.5178821253 283.0258821761
-58.9734066398 -105.9358258297 251.2769794726
11.2728110111 84.5496231982 418.9137420869
13.4381351186 -68.0871986594 250.7338767857
52.2384209913 -11.1852196942 284.7693751499
54.0739812714 21.5566579077 341.9099963907
-45.8732916821 -8.9641537779 378.4902465406
-31.4279983413 50.2708289748 435.3133628122
-46.6468143765 22.4267407692 416.4263968087
-47.4738597866 -12.8740307331 375.2270721867
-10.6624074373 -70.3258512101 342.9295310068
-102.4445826527 -24.4905057434 403.4982475695
-44.2772497037 -99.7675659081 255.7365983422
-110.0942542576 -78.2234249869 335.1024708844
65.5051259219 -27.0404999742 255.2543082518
42.7469539794 -26.0768487718 275.3981694908
80.5879105566 3.4691114064 256.2479278798
-85.9816859358 -67.0176989717 335.2311519115
77.5553505084 -31.0767303380 219.5529020940
-14.1856248839 -40.5414226667 305.9854988072
63.2809453519 -19.8405908821 277.2206305568
-61.6685742782 -2.1907193670 399.9689146258
-21.8044013460 68.0761444326 428.4265049102
20.3472930265 -22.2913788458 322.3711520797
-7.4411854301 -70.4229479740 274.0946936447
3.1715143747 -62.9096857282 265.2456005608
-25.2549158802 -60.0441949166 292.3175102507
34.2229703991 35.8409616057 364.1706073711
-70.9407047217 11.0637487576 414.3107276198
95.4896512896 0.6231391496 260.0850626113
54.0513755376 -5.1714629414 290.1786048306
44.7706690708 50.6874638391 363.0222336756
-1.3067057832 52.7944318669 414.2406444899
-114.1779797617 -74.7136389354 350.1231926865
30.7015160091 0.1795011569 340.1680966893
81.9698674030 -21.5430732386 222.2844895895
-2.5172396913 -72.4670930674 258.8689562425
18.7101490130 -75.6044426271 233.0714171517
58.0764976908 -21.3177610442 277.1897049665
33.0027915715 9.7140744472 325.0604756380
-39.9867642275 -82.4316484401 286.9180730439
48.6789592678 5.8788212789 307.3842019457
-74.3310450293 -43.1384518711 353.4120594203
-67.2595515158 -101.5460239671 270.1570657778
37.7485917301 -58.0045743322 212.8978757205
20.6676136585 -37.6621490367 280.1326186987
-110.2009341227 -81.0754106836 339.9352878111
-122.1889558561 -12.8368731526 403.8277026026
-117.9481014320 -49.3825315319 374.5851175135
21.4982337116 -37.0077145838 299.7716634199
-34.0761361336 -45.9028012173 326.5248690911
-97.9922555718 -74.0216465547 345.3330087344
-14.8249978457 -33.9162934925 344.1464854275
-35.0488232174 11.8439231964 393.8035862907
-110.1591230183 -61.1586536516 363.8456316824
-36.1843340603 45.1748729174 425.0550311462
17.6307446506 45.0152776227 379.3659361588
0.8267178225 32.5362104926 388.3254812918
-131.2906822905 -63.9052824995 353.9672456373
85.2097293997 65.7447609561 345.2006355769
-130.8368755533 -40.9909731392 383.9885780760
66.5341724500 3.5265156230 299.4159919217
34.3020977588 39.8167314522 368.8960227048
17.3318830552 42.7887424767 376.9710580627
-80.0610733358 -5.3169891121 412.1039010316
18.1496514870 76.9203949082 413.8991629416
-89.2959193540 1.6426578502 422.0261231562
-51.7381137578 -76.0491572558 295.7184017944
-72.3905944985 -72.3401754171 317.4495441312
-114.7838749850 -64.0315649278 363.9960660879
49.2031955957 81.9070590269 390.3628270568
-60.8565707192 30.7041464685 428.4147928702
-57.2908270620 31.1644720826 426.3866752873
-36.9861557232 -91.8302483398 273.5003813849
25.8167870509 48.2611576568 386.0523185631
54.0977973339 71.0799215956 389.1837680718
65.0991691649 -10.4287259492 274.9309641912
101.6201877229 23.9069774162 280.3901063297
-65.0608458914 -95.6704736207 278.2967248090
101.5582872329 58.0964434138 303.5604637182
-15.3453808550 9.3917591526 368.0379285543
-40.0110348695 -69.5749456159 293.5010007142
-30.2302927249 -31.8772495153 350.0552499320
-41.1840562953 38.6578153158 421.5889093411
-27.3711942284 39.9681454153 411.3691934871
-106.2909764552 -80.7742845056 338.1049725692
67.1779524259 -35.6074224006 222.0287837216
-82.7454582966 -5.2607217051 414.5518127836
35.0708212584 -15.4224855038 307.8589921622
7.6395622484 -81.5159382096 246.4215530386
-71.4527215221 -95.7957964426 283.8093269766
33.3170803591 -20.9283095210 289.0259353766
21.3386553690 21.0017094306 348.5195588224
-45.5670688025 2.0515687900 391.3027165015
-1.7647590190 -59.1664014774 319.7240328674
29.4137309122 11.1857606026 330.4037291595
-77.4879988765 4.1681853622 411.8188118694
70.3374937663 32.8863095466 334.7159741105
-5.9761530009 57.7145905708 414.2755913019
7.6600311767 -52.6448020441 273.5188583158
-3.6419605208 15.0671909098 366.2823056995
3.9568709505 11.8306955448 368.7412385750
2.4854494192 21.8418616541 365.1418822437
-43.7500144243 -49.0277698786 329.2421803418
-115.0298584550 -46.2168702510 376.6142226929
30.4712401666 -1.1081257380 326.9402656237
81.2272639940 41.3825106512 333.6380588214
6.5196082033 3.7288800205 376.6189781340
4.5627569938 67.2778798986 416.6224948564
-100.2585923273 -19.3279521290 407.7591719133
85.2592481194 -3.3685565999 263.8985780284
64.1513490110 26.4248710180 336.3786399869
18.3383814784 -67.6680458428 238.3054278403
-73.8824714609 -64.4202285217 328.1911716933
25.3642168768 -34.3346846256 306.0847200666
3.2340656341 0.9727834708 376.1346943745
29.2899801183 -8.8801610429 330.6666435620
-65.6214224678 -39.8202089199 350.0703181747
34.0942904955 -56.6336180277 246.9150031971
96.5415645041 61.0381431998 310.9167960783
-16.2203963117 -68.1199528677 349.3202960959
47.1163953268 3.9743633837 346.2720337872
-33.5616756858 16.0959842414 388.5924445083
-39.3548082958 -3.9579897373 378.6761339858
-83.1375527521 36.5650110454 432.9442378109
81.2988096585 -7.8971545207 264.2407744184
-99.8628732716 -30.8758340199 398.1304315266
23.0192648938 -47.3004239323 287.1812798957
39.4417293155 -8.5962963130 343.1509711339
102.5342228920 54.6231997203 299.8233532465
42.3621621513 11.2455724444 318.8954212890
40.3394070493 -4.5609149966 311.9229380614
-41.5969577942 -80.7890106223 281.6851440078
-19.9709369079 12.4620377534 393.3034384070
-25.2237070532 10.8848499284 375.5927128320
8.7768006278 67.5851188355 413.4416956872
73.9099814217 93.1721182599 366.9921513505
-38.1375789523 -44.6931688276 321.2463463998
88.2866041058 12.3379631858 268.3270043128
11.2728971367 -78.4242720046 212.8672395996
-115.5598032868 -10.1854982983 415.2868581670
43.1790537683 79.4169823911 396.9858495078
16.3052275428 3.6356670380 356.4814585393
-107.5142986417 -63.5523870414 360.5994386218
-79.2426096677 -28.4948800388 374.6584123698
64.9416068649 65.0004760399 372.8207079377
24.2415284143 -7.7351721974 392.4603443445
-17.0136971618 35.8936424867 397.9004849623
-50.3936054563 50.6866329471 432.7954076770
-69.1336103381 -2.8899017957 405.5205619658
14.6930540307 -55.8326809277 272.3825343448
27.8915132898 8.6925187160 331.9286598411
10.0553445844 -56.5138259691 267.0406074905
-93.8383762000 -2.2105421824 419.3375847434
-33.5280509577 47.6773247485 425.7765603916
101.5673653382 55.0736479610 310.3976002037
59.2525445431 59.2242262107 370.6663733157
-24.2666497915 -33.5025164421 386.4863877835
82.8384733817 15.2611143768 289.8398854274
-113.2651716520 -34.6895682204 396.5413347349
-49.0537686952 -42.4977341082 347.8706847378
-20.1302780589 35.4439013463 399.9682885843
3.1989657834 59.8996517048 409.0434484420
-3.1556104331 -93.4799451362 236.7103708195
-79.5043413962 -39.2335049969 371.3558440342
45.4712002851 -9.7121653229 301.0198276074
-22.9228851854 -38.1749465515 329.9993236880
-62.7673492869 -22.0726739874 377.4693820833
-5.7856277141 -36.9387043984 327.1056493489
62.6360800946 90.6280115713 378.1234544811
41.3614930598 -37.2850548120 318.4681679845
48.7346211643 -30.6446714595 265.1608513130
-113.1835016024 -90.7167253137 319.0036291642
72.4828269887 32.9543429797 319.1288603337
-18.3687020957 -13.0022683003 389.8280068799
-19.5645502781 49.1675073142 415.6176418956
55.0777259975 -15.0506406420 340.9046274583
-49.8938606718 -2.0320060243 381.0124762558
-43.9553631325 71.7945838671 438.8744157734
-81.7835797374 -92.3912211747 306.3367716584
7.3020474835 1.3676073383 361.7879671901
45.8003366150 76.9499427667 393.0092449433
-16.4883528533 50.1468988704 423.9340408587
-7.4851276664 -57.6114774665 280.2804587982
64.7341566717 82.1163637441 383.9850102173
-32.4533857444 -46.4321055893 329.6409776393
25.6561497404 -34.4010457952 320.8086035507
-21.8083956173 -37.1170105524 326.2537876526
-49.5732398702 35.4811202822 434.2122323559
53.8823694482 -16.9550282520 336.1980218629
-39.4465649091 74.6832792227 439.3668403981
81.5239052780 71.0135946658 350.4156795766
-59.6756061952 -101.3894063493 276.0201653474
52.8525675033 73.5730839698 393.1383654687
50.0150109784 -17.2773540617 328.1775180860
-92.6231347721 -44.0648057500 367.8029645060
42.8430653899 71.7989065484 389.4951289546
49.8974173917 -34.3741804161 326.6524328803
-10.6512304735 -14.0664987879 370.0679821645
105.9294431690 35.1474939785 273.4542204239
-86.1672255635 -3.1324427776 419.2146354629
-73.7836510938 -101.4334528070 256.0951463401
-7.3514579260 42.3205527222 406.7884504561
-58.7868502517 15.0616250544 418.0468480531
42.5468147182 39.1380388288 351.3899513690
-109.8080830059 -78.4308385662 343.4132685240
-25.8012900547 -2.4584881296 366.5176383102
-79.3363801590 -104.5870004963 266.3484458916
-62.3536783017 50.7603875855 442.6516513712
-17.1196303297 -22.6393675829 365.3846310060
25.4460303588 -47.3069673844 327.7851553782
-40.2051929677 -36.5768927739 353.3772709511
82.7025869588 -35.1109303416 238.9040791147
46.1348511722 -41.5536121975 254.5805611749
-122.2061087583 -54.4352988061 376.6593848719
-118.7295003436 -77.6970412610 329.1715256947
80.1452959348 55.1011187210 348.0881921635
52.5900252105 -5.6460248770 346.8586268046
-28.7322359316 -49.6368997804 315.7156414960
-15.6173573157 -67.5271698132 346.0095627465
-89.7124603520 -97.9940525386 289.9435975643
-81.7365989713 41.7496407452 435.2014985746
46.3854941079 -35.2558247924 270.6805950829
20.8606448260 44.1880273987 375.6243224026
76.4937149148 35.5987844799 335.8647154379
2.2767781211 -38.5813246584 318.3359749685
4.7794191811 -71.4630577038 253.9669156661
60.5853888749 -18.9788125064 277.7858451685
12.2507835861 -54.3325574903 329.7324081225
-93.6680349384 -25.8635457273 390.1459049824
29.8882994774 -5.8472645798 333.7441446667
5.6701323559 38.0845361408 381.3297833939
61.7074127454 39.0182820331 335.1737188444
-72.6232860440 -97.2928211054 291.1031885200
-103.2704697051 -52.9198205524 366.2879629493
-35.0245454787 -18.2914205390 353.0435753768
-24.8381264146 -39.1028963391 337.3168724496
-75.4794511126 0.3130640068 405.4132814186
-92.5572761357 6.3443590350 416.4804996218
-13.3977525471 -10.6621145196 392.0950874857
-37.0847162486 26.8517102878 404.1832293525
16.8400464551 -0.0025208539 357.0771501182
95.1570545824 43.3962918230 293.8155509731
94.3944289399 48.1915402234 337.5092608371
-26.2526495539 34.3156949494 403.7600493642
-39.7401820970 7.2689412430 392.5016177311
25.6306256958 -3.7562575909 377.9500760840
-18.1508546717 -66.5833020068 350.5990695410
-91.5377605750 -60.0888333025 356.8112120482
47.4323859208 -17.5310265173 281.4238030516
11.6820474356 -21.7936787128 307.0722592284
-60.0577311734 -10.0222279775 380.1621522409
50.7340675856 45.3133746410 361.4528634700
7.7148562734 -42.5597995468 304.5633646926
22.2661562629 -57.6290697030 267.8262825369
1.6901274038 -55.7542179176 315.2187808728
65.7620381359 58.4924768249 354.5133110421
-23.8143453187 -101.4656772978 240.6032204142
50.8863809590 -28.8323812087 274.5476591253
-114.2969906782 -82.6226922695 323.3659204363
-86.4079300804 -78.9669328153 338.5249697978
-91.0873784126 -40.0239025221 371.2277646397
10.2897974769 74.0123154676 424.4691326607
-17.8254529952 -79.4348765042 263.6808942966
-7.0686496010 21.2451054577 381.2527300647
-36.6445334752 29.5593176624 407.0155097508
-57.5667345718 -11.6964076788 385.2886004378
40.6123735228 -43.3853759635 334.3485816423
79.0900975262 -13.7096989428 258.6401502263
-112.1367123989 -19.6218174149 410.1884983620
20.4456884419 59.8954283794 394.5088704876
87.5327136480 -24.3259943927 249.8168692665
24.7839926631 65.0583121244 396.9159699755
-103.5060282494 -90.3040493812 323.2620666736
46.7039760402 -53.5120540700 216.9619078548
5.5019350267 63.4322223747 411.2841469350
91.7346181792 -8.8778759594 252.7150370248
-53.6245268328 30.4808315734 432.1503124505
-15.6594924524 -40.2606923591 379.3152753315
6.8976944382 -31.1734805881 323.2007293647
35.6459243179 12.6937834408 365.9523818194
-64.4027780740 -99.6210863205 281.6645070052
92.3710666236 36.3934636040 286.4899486711
-123.1303271042 -13.4638306531 407.5586139297
68.7960940390 30.2075707636 328.3118315201
-111.4581864451 -85.8659080191 314.9769403580
58.2948206843 68.4455758149 382.4977809262
-75.6726920631 15.8171347594 423.2693078557
23.4102903005 31.2503614182 367.6595503885
-27.4554436321 -88.3536325286 259.6437712936
80.0282678680 40.7311626108 321.8745786915
91.7972279097 55.8706608519 342.3062055213
60.0137999100 24.8662624750 335.3294828660
-70.0438277287 -41.0538209410 361.2135825136
22.9391329986 -45.5846542333 269.0994843011
89.0468713851 37.2050473402 319.8941767271
-119.5460738214 -59.4338231131 362.7495987709
5.9927867838 55.2122203664 411.0123407892
101.4196950535 -6.8862805826 251.8118783780
-1.1090678249 -77.9344739226 245.5093349618
95.2285841352 4.9944171091 264.7011512066
27.7883285371 -5.7406662710 347.4751967193
-7.4623202983 -59.9363900539 286.3790792803
-111.5802283610 -73.5975358028 342.1010696031
-38.8579933943 -38.6802283861 354.4949154928
-49.9607056574 -19.9471146382 360.5223550177
90.9967810441 -28.5422522850 235.2286798804
-60.9578204420 -60.7298686787 337.6694223531
-107.4900133651 -95.8185591827 300.7089809279
-99.3804748403 -99.9900136933 296.8926353437
4.9047313817 -65.5712609787 340.1452639010
96.3416388650 39.4849529102 301.0748513224
-27.7683062559 -80.9463426683 278.4366087194
34.9067268499 -1.5129485226 388.2337327174
99.9921668696 56.5249431969 320.7229297293
91.9132212446 43.7215061431 315.2899147125
-53.6734842798 -76.8464478860 305.1229937435
-99.4312341337 -57.7108405892 357.5625389941
63.9102153106 -26.1474709262 257.6127384584
52.7877721773 52.3153977660 358.1706034229
99.9102369473 -4.0817432370 253.5423426071
44.0321123601 -36.9081748684 261.7684688255
-43.0813216562 -90.4724016001 267.4074637755
-30.0026834334 -92.6240679592 266.6999559057
-73.6241289573 -42.6567632796 362.3519836362
-14.6646322999 -14.5536165650 378.6837844098
34.8865007738 0.9839272469 385.0026693333
-2.6392938936 8.4391362914 371.7740940242
4.3259037457 92.6517270561 423.9099038216
-79.4997921924 -86.8864273235 305.0645089602
69.6712996529 -15.8921194945 279.7483797189
-89.7269449440 -47.5601317939 370.2490844545
46.2288745532 14.8944968390 335.7144786467
102.0883834465 30.2217273592 286.2944280193
54.9483415768 -56.4351822117 236.0087494321
-5.5284789593 -75.0093997844 258.4114964645
-93.1952148664 11.7342704986 424.0625543908
60.2267806128 11.3221787482 313.6557418184
8.3220395870 -67.4890595469 326.4888853600
52.6447919561 41.7412006159 355.5496831725
-82.6669600335 33.4097212163 433.3846679181
85.3891491790 14.1326716197 302.1768953771
-54.9218190145 -90.6494987381 290.1972916132
-94.3082099870 -100.5827697207 279.9993125967
80.3262120286 -34.0065214751 223.6099603860
76.3027999063 -18.5101661109 249.4958776123
-10.6071096094 -69.0515057706 278.3290441333
-59.7550254876 -73.5133787808 305.4401490051
-99.0413462270 -72.7920879008 334.1049085993
-85.9778108115 -32.3315033978 375.8624984608
51.1660091238 -14.3908582673 291.1354291779
13.1584187350 -9.0336983232 387.6104537341
84.0872238068 -19.1674410317 254.6320911898
85.2725744414 -26.5440148686 248.7950909173
-71.7287729338 -89.4746036267 293.6638320392
56.6171295487 -25.9300031365 272.9979411318
79.8181851082 58.3878472454 352.3567467772
-26.3052600323 -48.9347285022 377.1248250409
51.3710380636 -18.1105083563 286.6320845199
-25.6260296888 -91.1850064652 264.8329730543
-91.5905269702 -101.6249711268 277.4597343997
-6.8431063349 -27.7583268574 388.6306363659
-66.6792682631 -23.6811454278 369.5619391994
69.5497539002 -17.5060613405 262.9375459661
-70.1513380407 -48.9734153481 343.0730068009
51.5840159706 -59.1034715394 215.9933845844
-7.0817665429 -90.0191845356 230.2214745276
-23.5532853703 -95.8881958950 237.6957873232
-71.7876512865 -66.1709652952 344.0465517293
-84.0461971587 -50.5298977749 352.8938910754
23.6339009406 -24.3430112318 293.0685689470
57.8351558743 -2.3013941627 290.4073158244
30.6290466229 -25.8753315958 285.5502356085
71.0680826677 71.5013961854 365.2808965222
43.9100064142 18.3060182796 325.7961151022
-52.2254077914 26.0279079863 425.5433776367
-27.9367425918 -56.5523763368 307.3796388483
-23.4086785664 -98.0130952674 249.7138946005
-40.5617696727 -96.1911149507 269.4984696429
38.5995132262 68.4213898182 389.0638060873
13.9397908580 4.1133252117 389.7570179028
-3.8217362137 76.8411519168 431.4347783163
54.4618990957 77.4984749633 386.2435199747
-35.7858151239 -78.8416219389 287.7569497540
10.5946276570 -82.2816666616 228.8149331920
60.4260976409 -43.7539725996 237.8088078054
-7.6135551482 -87.8608537541 252.1263738474
-40.4473788810 -78.6895171214 283.1902618795
