231.1764314165 83.9706884937 216.5098474547
224.3687524678 87.2385788920 223.0912404238
207.3571127632 79.0806854536 230.7632265238
217.8503786434 89.8533726552 231.0960247339
223.5249061379 95.5832318465 238.8690941387
214.1326030145 84.6201851325 232.4726515547
214.4472561468 83.6298062254 226.0921823895
218.7656638500 85.5135190723 230.1443249004
224.3474843848 79.5612711743 216.2459035777
227.7941344802 84.4278069665 219.5701414230
220.6103689827 72.3291160002 208.6563083516
211.7134409763 87.0279192889 232.2296087157
217.0750084279 90.1579004324 232.0386572486
221.4203894981 81.9832484960 218.9268711372
228.5075088124 92.3291334233 226.1743622701
221.0453969859 95.0387190222 234.9877534757
230.8166749441 90.7569637322 223.2934470324
226.6456476072 94.2189511946 229.8329814501
228.0096099220 86.4712974445 224.4387647542
217.2543926775 92.6991695881 234.9786208958
212.5448698989 79.6191788502 222.6557303774
219.4277822862 73.5790900627 210.2401144415
212.6664211254 75.6803094806 222.7114595383
234.3650088517 84.3282701294 212.1374195282
223.1442221671 84.0713082219 220.1754380413
229.9049969120 87.2246651207 221.4004407961
208.1020486981 77.8049156924 226.3028852286
223.1109791148 81.4524365573 217.4406112198
211.0154298382 88.7348154466 234.8241941921
227.1211663685 93.4698133655 231.3379090918
213.5905987116 90.3450114472 234.8551861291
216.9377352611 93.4984423268 236.1826061208
233.6248631746 87.1133584147 218.5144646060
217.6218409237 79.4113102560 218.6442646596
211.6788569450 83.7082164109 228.2359681128
221.5744076784 73.4470254102 210.8891510368
233.9261798144 82.8858890808 211.4543993619
212.5347384945 84.0071641348 232.9128009961
211.8618940676 78.7622774959 227.0451721580
221.4279863128 92.4667930321 236.6239423937
225.2949382054 85.1955152595 224.9194196797
214.8835436337 83.8648904684 230.9990255333
217.7617266815 88.7727154911 234.8355974080
229.6794240252 87.9777391111 220.0510470795
224.4155220304 85.7714386932 221.2817591643
229.7258666596 88.7203322240 225.9245756330
220.4574263943 73.7758842751 212.1074592769
222.9462189137 87.0269186192 223.8925786123
226.3557585097 93.1100836655 228.7138957782
210.9518595942 88.5433479911 234.6317681076
210.4549130157 83.8724153481 234.2879120563
214.7411741111 76.8727423091 220.5992304584
233.2928320442 88.7473210518 218.7186627944
227.9009299816 84.8537319688 220.0058544732
215.2178001963 72.2291324098 212.2279805075
215.0703550853 76.5152608255 221.4273322359
228.0601334893 86.7136130399 224.7062004767
211.5933423244 88.0363649111 233.5346065087
231.9991792937 84.1917725496 216.1653292744
227.9781800598 84.3509217651 216.9304290792
209.2442962744 82.1043004809 233.0361156487
215.8004743532 82.4212340087 228.5699102459
211.4299192187 80.8265012633 224.9440240498
217.1726383656 79.3265103195 218.8739265044
230.3112410624 90.7977521534 225.7464323003
211.4652822875 76.0411597747 224.0445464329
210.4521001906 80.8854176971 225.7363164397
229.3392060707 87.8569633897 222.6345789282
230.5510263913 84.6373140939 217.7851440701
216.8106169903 73.0127705672 211.4926598245
222.4288290796 76.1579534359 211.1188176910
220.5182226332 78.0702756978 217.2693025436
219.0984423146 88.3940367534 233.3900830509
213.2213021875 76.4593399706 218.3305254781
219.8013577002 73.5500595189 212.3191622851
217.8590074848 76.7371041299 215.2200909574
231.7416716366 90.0406807093 221.1335305024
222.5427534955 74.1610415054 211.0372687460
207.2378465791 78.8021548714 226.6440484455
224.2920150241 92.1555461722 229.0941660810
218.9258269193 73.3563993192 210.3424681332
219.9222680287 74.2263212978 210.6580093673
221.2312821346 78.9455653278 215.3801717463
228.4770223716 82.3719641656 215.0272947810
221.1992248644 81.8207979210 221.2840314816
220.1723374424 82.2103988165 225.0788972418
231.9715222534 82.9748003860 214.7153965285
223.7115529090 93.2615770027 235.9013217665
208.8201881266 81.5163906342 227.7010906629
213.7016497419 74.1534262757 215.1566648757
208.4667224749 77.2627112198 226.6852536911
213.0790970510 83.9117246643 227.4452108153
208.1558771880 82.2064822596 233.9627216147
234.3000450609 82.4170747917 212.2587453239
230.7832642148 88.5402107075 224.9289342895
216.8609231598 78.4204225061 222.9212911002
215.7911110463 85.5790050724 232.4098332010
219.5988368633 84.1331856407 227.8361347917
226.7305014113 91.7483263357 231.8371776162
220.9029760271 91.7024788534 231.0655119938
224.0657145767 83.5243934972 223.7693804781
219.7046636803 89.8540345783 234.7133185920
214.1842497043 88.0773779185 236.6189414493
217.6115647086 85.0417945323 225.4583901542
213.0613111495 73.9948564577 216.2815829247
209.0521557009 82.1290761871 233.2079904595
215.9355593380 80.0506117072 220.6608026292
210.0172586043 82.4238636210 227.9120177990
215.9969773095 76.5823756475 216.4134937848
215.1046300192 90.9002178844 234.3943495112
226.6012877019 92.4126491531 232.7375205271
228.1824563777 83.7339295928 216.0424827853
228.2434921818 83.6451601811 215.8907031569
221.6185476353 72.3414041832 209.4028911850
213.7537269438 83.9113729663 231.8916912608
229.1550443425 87.9851207568 223.4161301634
213.5211324066 75.7209767219 220.6765818581
225.3675180660 81.9290939474 218.3429068299
204.4824120525 81.0913767921 230.7496286048
224.8872341771 95.7140018766 233.7095513560
215.9856855094 73.2619198396 214.7958563299
225.4583751548 91.9250183061 227.9496170247
215.4067992428 87.2101466615 234.6785218774
209.8990489852 83.9736503125 234.8222669046
210.9608447524 84.4915439378 229.7190584131
215.0106429718 83.8202948537 230.8513057377
216.8574585047 88.7689209406 230.5227794146
213.5143614157 80.2841292494 227.6621112395
220.2590852940 91.5745862786 231.3879796080
212.2436113106 77.7532441026 225.5391474423
222.9147129583 93.9183794192 237.2915917999
222.2619797056 84.4111460234 221.2440179787
231.3112525994 83.0166306145 215.2562752803
207.4342717448 82.0126602290 234.2575315692
221.3499724839 82.9688859346 225.1294319965
218.1106935734 72.2361323947 209.5907978824
220.5311757299 83.4246123386 221.3312898123
223.6540037240 85.6801408184 226.7174695327
230.2222720799 82.7429077098 215.7337040002
232.3274837847 83.3205432246 214.8679036859
223.4179333010 78.5918982251 215.3678415528
230.2366384127 84.6796518793 215.6545324699
217.5416660300 82.3464437256 227.1890270433
223.0523831303 93.0097925024 236.0830591293
227.4527398639 83.2899052506 218.4463952685
227.7886515576 90.2132403175 224.1563203637
216.0409451990 75.9135639962 215.5632279549
214.2599575439 81.3721917374 223.5058677607
218.8641567551 78.6462128624 216.7876228154
218.3371469994 77.9601875427 218.7537759529
212.2651264111 86.9051835830 231.6732484904
216.8046127837 73.3296283850 214.2718548360
211.5165789211 82.5586807622 231.9058434681
224.3739549219 90.7138365973 227.2930606184
227.3710766424 84.1215578931 219.5136581586
207.8163566298 82.1549225756 234.1491152134
217.4981691701 72.6058170396 212.8843970413
224.1961826485 84.3777856994 224.7317123540
207.8483103588 83.0722492662 235.2167312663
218.7512895743 88.1814971929 233.3879002747
222.7671230550 89.8218567355 227.4040792764
233.0624441784 83.8730856936 212.5855168312
213.7338138009 77.3613150860 219.0423767397
207.7084071222 78.1100677057 227.0914317603
226.5409548024 87.7147517342 227.0572081760
214.0547737780 75.0714034976 216.0221867954
219.3184811408 78.7430707606 218.9776140630
219.9833061379 86.8169223380 230.8417771486
219.1321685316 80.2762284270 220.9985548926
226.5720376797 89.9207268648 229.7308061271
227.9229378468 81.9142910030 216.4191966386
232.6400133745 87.4009030272 217.1620791241
234.3966401403 87.5352763120 218.2086945860
219.6889887531 74.5243969824 211.1931421401
219.8940988197 80.7528491298 223.5057828722
226.1733067695 89.0400953481 223.9328870557
220.2654349548 83.7500034691 226.8770316825
220.1951071377 79.6456678973 216.9878890318
224.2239252635 74.7862955015 210.1322806802
206.2241446070 79.9330331985 227.7014202749
207.3873559808 79.7591005945 231.5712093634
230.6776577446 82.7390777806 212.9649408788
222.4219138368 92.0143590570 235.3409225328
225.0780576963 84.7348788437 219.5382288018
209.8308143743 82.1250536739 227.6885536065
211.5524103385 88.9649676127 234.6986052976
237.0247657400 85.4634235594 212.1669790192
235.2307303276 84.0206454147 213.5507120849
228.3139999562 83.6474418846 218.2410692936
208.6853517357 81.9396480778 233.2488823817
218.1750376917 89.2385432502 230.1125046421
218.9973855452 73.1599596167 212.4431092557
226.4167125906 83.0024779536 218.8679961487
229.8549440792 87.9100235321 224.1188010174
213.0926140384 86.8323141201 230.9704662586
217.7715347849 73.8062364466 211.7435457725
216.2872809135 73.5240593363 212.4973377764
226.8608585198 81.5948951419 216.2331354846
221.8519482796 80.4213654189 216.7392124574
228.0318525021 83.1369558349 215.4464401339
206.1087565447 79.1864131196 231.7911713670
212.0802065375 79.3908953179 227.6454910271
211.3845554658 84.6394175490 234.5311164081
221.3588049981 81.8539755731 223.7555425954
227.9870473872 91.9577820329 226.1129572599
220.7356037930 94.7546450686 234.8754253520
229.2165488206 91.1983066764 224.2761946714
233.4661645251 82.0956883615 212.5438981837
235.5897490337 86.6304101401 215.6414485044
214.4595078384 81.6577095662 223.7026529917
223.1194752453 95.7385845608 234.2938811513
225.3018414904 94.3497862805 236.0314894548
219.7130165840 73.3941599654 212.1952620162
221.8329802847 82.5892440939 224.3081178892
221.4004898427 79.5262545269 215.9204373920
222.1589392874 73.3652412129 210.3604026641
225.0347496598 95.4106795897 234.1782862497
218.7510753863 87.2109918987 232.2151389863
224.8013518044 84.6925187352 222.2035526902
220.7298253007 87.9060622024 231.6155558562
229.1330798576 81.9111756261 215.5270657177
229.1708351840 83.2334027980 214.7164992165
228.5718174862 91.8355467966 225.5214227414
220.6824659968 82.2111788780 219.7522519276
225.1294160852 91.9106466178 228.1766312317
208.9967504245 85.9217099047 232.9107659536
223.0952715947 78.8257634763 216.2535742220
214.7061988046 73.4764557501 216.0035862572
216.9211394043 91.5475439975 233.8296868616
223.1498207341 90.8138966969 233.3477001099
226.8193623787 85.7983124033 224.5162661149
222.9776899827 86.4716453630 223.1964183752
224.7894941645 85.8797159974 226.1245059497
224.3622593431 91.2768226525 233.0120320566
213.1508480528 78.2506323244 220.5499570776
220.4213786097 81.0814096740 218.5772109598
226.3679087785 84.9095846235 218.7934586156
214.5200073822 76.0960825699 221.8225183449
213.2383427511 81.0742336510 223.9043880322
226.5917175939 89.9863331567 224.7683416115
219.3215209256 91.6526058193 232.1769310092
207.2088080662 84.5780861812 232.6131944197
215.6005320420 78.0894259868 223.4587497306
226.7954320863 92.7023660470 232.9450164410
222.6112384235 77.8633087504 214.0099357163
224.3956815184 80.4053185887 216.7009657435
212.9977398441 87.2791201487 236.5482904952
227.0562359641 93.8569025266 229.1136293577
225.6043585620 86.8133150384 226.6552765913
209.4900477981 78.6245210957 228.6356315568
219.1264157096 90.5350149251 230.9727221171
218.5559923730 91.2670517542 237.2886727901
223.7033345939 87.9059585221 229.4077968799
205.3220184943 80.3604908046 233.8368031931
219.4758159102 70.7916197508 209.1762734808
234.6794271483 87.0559379394 217.6506827489
216.9417220032 85.5031754143 226.5119020472
205.2101963175 83.2637371043 232.5062753077
212.6124211764 74.2111486197 218.3832262938
212.4125055614 83.1481179537 231.9586536012
230.1992064970 81.2699996625 213.8800292002
221.4024800387 85.5928446641 223.3035893838
215.2041120597 81.0548545746 222.4188830048
219.1275017616 90.6519770965 236.1095682819
219.2386334536 88.4563789098 228.3764345970
235.4776110850 86.5773574099 216.2811708382
225.0953370784 90.2738446746 226.2252513539
216.1541735599 77.9496344754 222.8751073875
209.6527085856 80.3534340489 230.6135319840
231.1274058877 88.5277358324 219.6435170269
214.5457910230 88.4332536572 236.7838802119
219.7028543793 84.6332406599 228.3683344217
213.2387665800 84.4559805706 227.9828271292
225.5486301354 83.2518530916 219.8084110298
233.2099591666 83.6363781469 212.1872093013
218.7573791589 94.7033294167 236.2896816148
224.5099304973 91.5709537465 228.2268986309
229.1089470232 84.3962864150 218.5606083406
224.8459516430 87.1121477326 227.5835572425
210.7795682599 83.7471521569 233.8955881859
221.3656651483 83.5498781553 220.8670924770
223.0221481182 79.6567202307 217.3253219442
232.3602523017 86.2447040542 218.3921365453
216.3476136248 74.7586860221 216.3403997277
232.7811206374 86.0731910348 215.4499892125
221.3033595070 79.6282050303 216.1161101105
235.7204685735 85.1924498708 212.2108471867
207.9512228448 78.1778438724 225.4870683014
228.2591975833 82.9748779493 215.1384929909
220.1128950783 72.0751562735 210.3000971630
227.2356995366 93.5009631169 230.5954519447
223.7597265258 81.8141765966 219.3905833376
209.9541487844 78.3331193513 227.9377874727
220.7239731929 91.9448831028 231.4905306322
230.8937063849 89.7582624623 221.2933517912
218.3848390161 84.2845580841 228.9264504182
216.9156384074 77.6661152439 219.4560125839
218.0331053778 77.6743664425 216.2308980522
229.2276822021 88.3253069826 220.8055306983
211.8772564310 84.8419712530 229.4615728060
209.6921970415 78.1017047880 227.8519135778
222.7139202572 93.7403703027 232.1802914855
205.2313427068 81.4603194412 230.3143570232
222.4315999294 97.4760377983 236.8893187599
214.0417962242 73.0030952438 215.2935092382
226.0696642776 90.0574699415 225.2407308175
236.6423789472 84.1940100519 212.5169126235
211.5165373461 77.2900820352 220.6011209173
237.1392338798 85.3864660291 212.8964248713
216.9390402721 78.3355292317 222.7544578067
214.1682606589 91.0217390673 235.2470377814
210.9804380746 88.0185577784 233.9707843515
221.8417942666 83.7616348547 225.7273070695
221.4616121770 81.4253695199 220.6564587474
207.5515862483 79.8771495642 231.5925493394
205.5499090182 79.8396905005 231.0244835059
204.2154817911 81.2259804347 232.0737913231
214.7126863045 87.0252527466 230.0017559316
218.7894153508 71.9294841834 208.7222374818
229.0406392992 90.9213453368 229.1144142600
225.4255358937 86.3114683433 226.1786818633
224.1668981952 89.1381136785 230.5660410760
223.4068184013 80.3307856382 217.8581460742
221.3845219051 87.6656606937 230.8426712998
232.3690951486 84.1677589010 215.8615872624
212.9426590793 89.7552469542 234.6168822639
223.1125322222 90.5598631972 233.0683730678
215.6465833801 72.5598695583 214.1987686364
219.5480991472 81.7840757480 220.0773202913
222.8294892944 82.1640378123 220.5159442430
226.4585429762 89.4741682193 229.2712853513
219.5374053579 92.1059908499 237.5854206196
211.6964639861 75.9387416789 218.8422537572
212.2772500622 89.4200467146 234.7050389067
221.1292008857 85.6881232527 228.5971739001
215.6622740094 71.7040487834 213.1198394967
212.7704039193 90.1879248261 235.2789060432
213.5633553000 81.5028588970 224.1814553425
229.9402965149 90.8360068566 227.4899326066
217.6082307198 89.5541818225 235.8983357209
220.8815420765 80.9834771302 223.0319413746
224.7347789613 84.5715752573 219.5951139489
223.3744513445 77.6552616081 214.2779538322
215.7553703783 76.2564279183 216.1954510634
235.9942699519 85.0158000707 214.1927478555
210.6151224729 80.5515662008 230.1391749868
215.3058935164 84.0834174210 226.0071849385
232.8478414157 85.5059626286 217.1328211894
213.7750679828 88.5511286644 232.5401406666
219.1792501012 79.5090301173 217.5978238474
217.0366090884 82.7055172006 223.0595927808
225.9087997653 94.0188576386 235.0780497106
231.7739357458 89.0848297682 219.8316642637
208.5287066131 78.0662828144 228.6739021950
221.5575495912 83.3665006928 225.4584402921
222.4426228548 82.4389236905 223.6691260500
220.1021899501 78.0578697037 215.1549217393
218.4051275296 87.5144163909 227.8575698673
227.4109046882 90.9146385241 230.3135523988
217.1874789577 90.3082174995 232.1366365290
219.8323259795 72.5268995360 208.6851846565
221.5560195486 93.7042640220 238.0337551517
209.5009825486 86.8735772041 233.6920777952
216.0844297103 81.5431020230 227.2932067394
219.9934846845 88.4345952402 227.7863220016
233.8374309816 83.3523733459 211.4407302777
221.1519487879 77.7491165887 216.4062785773
226.0988406477 84.7906070063 221.2781670930
212.9977505915 86.9061345281 231.1304727822
215.9511419150 73.7935079009 215.4652736753
228.3193617476 85.8819544213 220.9452400260
220.3957321444 81.3192712336 218.8853656653
207.6236619102 83.0159777802 230.4106603056
220.5834450997 89.8177064360 229.0212775323
221.8551740834 72.6913250509 209.2314719007
217.6194641444 88.0221859198 229.0562031081
219.5105392603 71.3182841617 209.8356597898
216.0910407439 82.9336865231 224.0360617797
211.6009871796 75.1561773630 219.0461979400
208.0211999534 78.8139471837 229.9484796181
215.1945423065 85.1689316925 227.3986682003
218.0209738377 75.8800519339 214.0625956293
216.5409949176 77.9180303147 217.6372666429
216.8794821507 89.7508302358 231.6924215973
227.0581719540 86.4628861514 220.1619441747
229.2072267814 81.9009821484 214.4238396910
221.7021686168 87.8943461908 230.8845707757
220.3529840077 92.1995199160 237.0921306995
230.9261510256 90.5451767140 223.5651294650
215.3300682283 82.0042078633 223.4746764362
227.5080487174 87.3833929976 225.9341865380
212.8602940270 76.1284740249 223.1083376532
227.4981925855 92.0836224045 226.6320470391
228.5636466727 83.5228703470 215.5023708285
216.8532073728 84.9111726527 230.8211875793
218.6771319873 78.4473067507 216.6878655216
222.7738334139 91.9662149431 229.9940416427
212.9109871314 74.8715410506 216.6387113736
207.1401793209 81.0527151434 228.3927111296
230.6855081028 85.8038134394 216.6820864568
215.5686031637 89.5516837829 232.4218307281
209.5060728286 79.2595638424 229.3953272316
232.7327369110 82.4687485478 213.5397116542
218.3397180560 90.8146001433 231.8937190675
212.0009994568 75.3455235040 217.8152480565
216.4988115189 78.0155617763 217.7868978785
215.1841205041 72.8004584158 212.4158929195
218.3362297483 79.3657574558 221.6386399303
218.1804485434 85.6850533228 225.8110945483
214.5240150522 72.9671706056 213.1873418785
227.6690359574 86.5131410738 223.4751793489
212.7730185904 78.0798932080 225.5425938912
219.7895254619 85.6341409314 224.5511414756
220.1611429561 91.9852006900 236.9730426588
213.8355460167 84.2561298688 227.2997389418
229.6982081497 86.1607463057 217.8412371980
233.0496879451 84.2010090437 212.9917275442
232.1213920366 89.6225250526 221.1594702348
224.8952280648 88.6140664981 224.3642876450
220.7328174804 82.0697661508 219.5439891638
210.8448784375 82.1977552661 231.9651952829
206.3130997610 84.4880295574 233.1719035834
214.7232855333 78.7217108997 219.9532626953
213.2378600459 81.7274552996 224.6941116279
228.0207036439 91.2521127447 225.2356968025
219.1077580926 89.7325264243 230.0169786902
210.3403753622 82.0738662841 227.2518412497
211.4900653541 75.2295221551 219.4153827087
219.1843736003 74.5126632322 213.9467822666
215.6711905934 91.9447646459 235.2358355924
212.0311894075 87.8878178631 233.0305026054
221.2228381075 73.4469580217 211.1466902872
231.6513261633 84.1006321363 213.9046087197
211.3445507739 77.1804612834 225.5107752192
231.5611042995 83.2976707093 212.9940541836
221.4810710604 75.1093437615 212.9718061406
227.9097222564 92.0731665430 231.3431830149
213.3668720174 75.2937572942 219.2188688041
208.4366958472 83.5916345090 235.4190940987
216.2782756363 85.1110488463 226.5302248741
227.6631913456 89.6893416014 228.6400118664
206.7077128295 79.9967213887 227.4173647775
225.1054658735 81.2313427063 217.6864587163
215.6961997698 82.3516399660 223.6235941196
235.0472866764 86.1422960858 213.8455758697
228.1601291842 92.5041624670 229.8865288565
217.1793601971 89.6980722958 231.4064021500
220.9628506736 87.7529520793 231.2597906942
218.4304787649 69.8485925182 208.5893044047
232.1748368725 89.6197468304 220.8732498111
223.3772706321 75.3995315236 210.0956792174
225.2871518177 90.6014706223 231.5125271807
224.5109380186 95.7711961952 235.4208802425
220.5547804443 88.7760029787 227.7805414247
217.0414368924 87.0010398535 233.2145142776
205.8345450528 79.5838743416 232.5256376762
213.1362591267 85.3862217075 234.1436899007
209.0430336533 80.2775476652 226.0379504819
220.5917996240 91.6463001833 231.2281518918
230.7989738645 90.2972165986 222.0038431988
230.6172326316 81.6417772679 214.1010374839
214.8058823212 76.3621766727 219.4452038583
234.3911863288 86.3704304301 217.0390812559
222.6700679938 95.0398789580 233.7826732858
208.8198090885 79.7491765184 230.4989208762
216.1940711447 92.7520523138 235.8211945528
218.9961949303 89.5333491095 229.8591329873
222.0305469183 92.8800973657 231.6505341655
219.4925107864 80.0200662700 217.9837400004
229.0055476282 90.1459522576 223.1682300696
212.9007127596 87.8988293442 232.4008798271
213.3391799794 88.7580820218 233.1121528191
220.6421780282 89.7303745149 233.8756104107
220.2926503709 76.5992286614 215.6492272257
211.4628045185 76.6610750497 224.7961656750
221.9025017569 95.8296783749 235.3043542068
220.1532977894 86.9086660647 230.8290889340
225.5726913909 93.9624339342 230.3340291976
216.4469960742 91.1518208457 233.7020400598
218.6599995291 81.9241012842 225.8466696095
221.5291862802 95.5090965702 235.1952688870
225.8843019409 93.5387405623 234.6346642806
224.9299532753 92.6419316378 229.2077591243
218.3979613092 76.2821998410 216.6693519148
219.5161694804 91.0380407534 231.2911054417
222.0460349585 81.0250100592 217.3100231130
224.1759733508 86.2624463930 227.0417273336
215.3906935895 76.6917022936 221.9474095696
207.1941380359 81.3338945233 233.6133910053
223.7938988449 88.0700118661 229.5411118233
224.8165785364 92.0145269921 233.5677618231
224.6722210950 83.4890361303 218.3257500771
227.6262888930 93.2939980654 229.4206796511
216.9738201781 82.5439872365 222.9104279017
212.9267972483 77.5124797300 224.7387217541
221.7162519700 88.5087343692 231.6156346624
224.2408684866 93.6822797241 230.9774228584
209.1883847563 79.5572495633 225.0654142606
219.5576506293 91.4202076438 236.7299584965
215.2404740763 76.8614876924 217.3190889442
233.7676304824 83.9112618246 212.0397094993
231.4728617864 81.7903920596 211.9263093430
224.5234412425 91.3875875044 227.9956236124
227.9857414214 89.0719470568 222.6293584764
228.2528498926 92.4399919608 229.6631694527
217.1383548121 78.3625809415 221.4906829170
211.3136922577 82.5819464520 227.1488195033
226.7430691127 90.5782107795 230.4022690658
222.7784651280 90.8859801097 228.6836558986
219.2493926016 77.0045519958 216.9158655326
210.5619248061 78.8884114886 223.2456293295
227.6997716459 82.3185079543 215.7182472948
223.8389852672 90.1855602539 227.0505506373
226.7896263414 82.3287073462 217.7698972819
232.9834557158 88.0891442271 217.7341516471
221.2394058270 86.3459030196 229.3271658746
215.1848335707 76.5568014601 221.5982806657
235.0372672494 85.7625321442 215.8094476577
209.1381198373 81.2686526438 232.1025471107
207.8938944987 80.5066179553 227.1688726961
215.1712327188 83.4917269528 230.3344985264
208.3824717717 83.3041801633 235.1157266113
211.6447747462 79.6218510433 223.3287730645
229.8148436875 87.6670101674 222.0188390537
212.6910002527 87.5068065554 232.0836476797
235.4012281948 87.0620506891 214.9477714507
208.3272926381 80.7315137856 227.1174777133
220.3682558967 91.4471112803 236.1654342619
216.3647764999 76.9853814768 219.0368410806
231.6523008391 87.6468278276 218.1974467279
221.7415837583 91.3444605611 230.0095842145
236.3192232498 86.1108045237 214.1109405679
223.1564806458 87.2237097393 223.9747241867
211.6628879229 74.6184043869 221.2080481168
216.7185150771 89.9840390025 232.0930120556
220.3313567350 95.5786338303 236.1756065312
215.6819358799 73.6879611574 215.5374875599
208.2958326881 77.3179208750 227.8562526962
220.3730746264 85.4203473162 228.8318120956
219.3146593045 72.0781165058 208.5648945408
210.2145876940 80.7892282203 225.7947160844
211.3544167891 77.0887715289 220.4775010678
217.5143811021 90.7932752579 237.4874042172
218.0748947274 78.5665978992 217.2842071162
230.4868216074 90.9120670220 224.3085773986
216.2674830263 73.2368088449 212.1639516580
219.9812339632 82.7901648663 225.9224371264
219.9820376243 93.0329987190 233.3545665451
218.6013147303 88.8402345370 234.2964411761
211.6341355058 85.5464620704 230.4974186738
217.8231499844 71.0299768430 210.7361815186
214.4840548722 89.3965290490 233.0357947058
231.3107158898 89.6426007544 223.3094655368
220.4204074518 81.4031978106 223.9107339075
219.5405223978 87.2348110979 231.6714074594
230.2288023719 90.2177668061 222.3411824837
219.4323246289 87.2624356981 226.7866059444
209.2120835489 78.3131184352 223.5353283636
217.5789640342 91.4232810502 233.1923984700
211.0582798827 83.1227244323 232.9311161337
216.0804373395 86.9689004631 228.9234632950
214.5954620091 78.0750016787 219.2672844581
222.2549137672 91.8189217995 235.2270548345
229.6789141400 84.1414268283 217.8306950960
220.2516425505 93.6522716831 233.9032211484
228.9518428650 81.6966746789 215.3996506096
222.1605679263 90.9079951611 234.1902148171
232.6114827498 83.1337314739 214.4318393771
215.9882415214 73.1749164884 212.2932249751
226.9983449237 92.5822942824 227.6060046033
236.3041899273 85.0620630379 211.8523754074
228.5046438540 81.7719945400 215.0585214704
208.0975615192 79.8602648140 231.1681544387
233.1741387201 81.4504618452 211.9157826818
233.9062870836 85.7758990841 216.6763445996
220.4393574052 96.0082454938 236.6170261586
226.0439643397 94.0045814913 234.7102474080
218.7634417530 80.1424037603 218.6802438992
215.8573520340 74.5450404089 214.0438592017
225.4476630780 95.1940821399 232.8689787989
217.8127838343 70.8347727155 210.5099528618
215.7885659884 86.0800646786 228.0626765191
214.5816650839 89.2145369400 232.7440016325
228.3086885476 85.9719786451 218.6414188296
218.5374438923 84.6006237921 229.1987563531
212.0461808000 80.2957171404 223.8459807953
220.8026955883 71.6715844948 209.1578932217
207.8972336199 79.8466646201 226.3668549469
208.2343180047 79.8591178558 226.1300520692
223.4370224877 94.8866161052 238.0909742214
219.8316828419 79.6100441986 219.6488067901
225.3372892661 93.5184616530 229.9691616307
223.9313612291 88.4213959104 229.8677979296
219.7322914945 92.3645982577 232.7317957732
225.7476835756 91.4759341284 232.2320753210
218.7477338630 73.4407183887 210.5768273940
235.3536723620 85.6995604095 215.4894114318
221.8725005647 85.1500940788 227.3880933837
234.6497295787 87.5287432121 216.7900893814
224.3058857833 94.4648091149 231.8688537746
215.0537759156 87.0853951631 234.7882476073
211.8112609644 89.2573326688 234.8601736789
221.7684974977 92.7973650582 236.7741040125
230.5726120766 90.7192480831 224.6651632101
224.5751216042 86.1034444737 221.5647478708
215.5025072575 90.2131294050 233.2682488630
218.9976627210 79.5011832877 220.1336579150
223.0457077944 84.7521963775 226.0389819262
222.9999784150 93.5487792406 231.7367823512
224.4335699786 94.8237786477 232.2035606067
210.1805021888 75.7348643717 224.2561931822
224.8754672455 94.4634146468 231.4470396097
222.7533297302 79.3102754107 217.1049022913
219.9013577188 77.7953989861 214.9894930562
217.1503447649 82.3934431619 222.5973949967
221.1247512255 82.0959755695 224.2320085748
221.7102707563 88.2270983560 231.2809253478
209.6618945429 76.8223029452 222.2674980874
218.8071751123 81.1817166826 224.8382857258
213.2819500676 77.6373459216 219.7114304304
216.3995402391 89.0609921039 236.1968564306
223.9395417955 80.8756100161 218.1223997689
231.9886389403 81.4399532029 212.8452944185
226.7665496285 86.1999168784 222.7435784761
231.4881000382 85.9752142723 216.2953782703
218.8253492570 91.2343776809 232.0402896900
214.6176432663 86.7493290368 229.7379213182
217.0906075344 85.1987045586 230.9953909706
218.1274910993 91.0842010416 232.3763966556
231.9410466898 86.4555250626 216.5403691722
221.6972433985 78.9738002905 215.1038340323
223.0887853180 74.1986230507 209.2216417497
217.6823911997 77.0258020157 215.7012231699
218.8322142460 76.8255708638 214.6130174017
209.7342568461 76.5635226446 222.9928809009
220.6191832301 81.2597044371 221.0743646599
222.8272047910 75.3592559598 209.8946359452
212.4326490281 87.3816019152 232.1239232556
229.9809715854 82.7062359515 215.8676824945
211.0843666086 75.2732851600 223.3955596273
214.4502035968 80.6391785247 227.3994404001
226.2894515597 83.4433186888 217.0739388023
213.8824559204 77.7543121883 219.4075053036
222.3894397000 81.0314680264 219.4653707142
229.3929221102 89.9379175722 227.6647397436
219.7233765358 82.6663255258 221.0129698092
218.6966727362 77.2918384284 215.2765607825
220.3938618725 80.5950646129 218.0041181592
209.4622283350 84.2351492924 235.4613438413
212.8560498346 88.5607903855 233.2313641635
219.1463776019 75.7338572037 213.0605756623
220.2477679521 79.2877986750 218.9489592750
229.6309604704 83.5508867595 217.1501683724
222.2564876938 81.0806858787 217.2819985352
221.8585381520 84.7396871932 226.9002331212
222.2411255932 93.0915364770 236.7825694132
225.2286089199 95.4751244433 232.5571451746
211.0869092085 75.0452589355 223.1029744279
225.5695707887 81.1795219655 216.7542657028
221.2262263474 77.0768955428 215.5332332023
228.5630586661 92.6878755858 227.0040700284
204.6445322571 83.5632340695 233.3051130245
230.7199913381 83.9823244143 214.4505589241
215.0763839331 92.0125402023 235.7594653898
223.3724350087 95.3376572904 233.6251398156
229.1970544460 87.6287904431 224.9835867452
235.9081989140 85.3065385640 212.2095915975
209.9281856867 77.3886319647 221.8865727655
221.4651000440 75.9523763916 211.6003517546
212.4507207151 78.7107046546 226.5463074552
205.1179761415 80.1556579202 231.9314920950
221.0927478564 87.0569536841 225.3061731043
226.4843222586 90.3767089745 230.3500041065
231.2182140163 81.5645253316 212.3312441738
219.8028612872 81.6687865858 224.6938851671
220.2674075282 74.7473672534 213.4295178297
210.3750124196 76.5831726441 225.5044308382
227.6252534381 92.7268558982 227.3242149811
222.0626232281 82.1720288509 218.6733496288
232.3771572392 88.9678932207 219.2487428778
224.3031937779 82.6312813715 217.7140303351
219.0650017866 72.4409072428 209.1353906392
211.9400039053 78.3460520054 221.5640179938
218.4902603143 79.5167727874 221.6367260444
220.1667104482 79.4066305225 219.1533535791
223.6785004583 86.9174857058 223.2150832183
225.2669811981 85.0474972749 224.7586728723
218.7471819021 84.7705842200 229.2498784746
212.6706788437 77.8048509475 225.2845604647
207.2287819967 81.5088658004 233.7999230629
223.1934515985 92.1174506145 234.8946160549
208.3130888829 77.2926269502 227.3634400681
222.4671182096 96.4785649793 235.6699639453
218.5572790260 82.8049793841 222.0507248812
210.4058115549 75.6525688261 223.3840057478
213.8712479103 74.5952807949 215.5818675201
228.0969836840 92.3229379041 230.9932151163
211.7293524207 87.5598875836 232.8590556557
224.9209062034 93.4986737848 230.2532931118
208.8141478156 82.3191467874 228.6798163479
227.6304594448 87.0418296683 220.4401348212
226.1161288289 93.1376461501 233.9651731236
214.1363913982 86.6607912970 229.9868949847
216.0353684669 80.9837503929 226.6510156145
220.8616200835 83.2126242503 220.8307042653
230.0850914736 90.8333472242 226.7919918132
223.9393223258 78.8051185856 215.6106575406
224.3801466327 84.0658314559 219.2450838719
216.6469470490 73.5665511486 212.2841965756
216.0277774150 83.1638981872 224.3617675976
215.8290366666 77.0975270762 222.1023943365
217.1317473275 73.8402335430 214.6477752081
226.5097882219 86.6509942902 220.7957403844
221.5624291389 85.0838538955 222.5725029076
228.1677773327 84.9556686505 217.5180964787
226.4230220083 85.9399929684 222.4739246598
210.4719820994 85.3987390266 231.1805219918
219.0149882858 94.9066884199 236.3441424956
205.0704711779 81.8152084860 230.8493806443
205.8197393880 80.1585721609 233.2173243550
213.3467358474 75.1802301332 221.2160951033
219.8713702893 87.2374176659 231.4344889552
215.6457051779 90.7761616517 233.8419893193
222.4412119003 79.3652983627 215.7732559861
228.4306538435 87.7998467791 225.7578042702
231.2642945996 89.9099316798 224.3217199472
221.6698655394 91.5031868241 235.2755528279
222.0467126299 87.6453984174 230.3245947116
217.9034429042 92.8516891738 234.6825813856
224.5924097988 80.4462781687 217.1097196050
233.7028307959 84.9297465458 215.7969323117
220.7446490600 87.1885895206 230.7353552645
213.5333596071 89.1487315808 233.4402471230
210.4168963713 77.7443449303 226.8810333793
225.3151906011 94.7450211580 235.4171682956
216.8207655531 70.6088526022 210.7292382400
229.8082268567 84.0829931386 217.6641526252
221.7985211646 84.0977487825 226.1668751075
226.4451774198 91.6177252875 231.8900796592
229.3625722750 86.0998185347 218.0156568291
218.3185102622 77.0746611454 215.2922122999
220.3912292440 84.3298419521 227.4875677927
230.4961248193 85.6718693060 216.6627431032
223.3864913562 96.9515029508 236.5039294013
228.5798815680 81.5878744611 215.0463601078
222.2023586387 94.6239109970 233.6267533464
219.5933985965 75.0988272416 211.9608681405
217.6216256715 88.4222944329 229.5376656752
233.7971419412 85.2316171885 216.0939847521
219.6206346310 80.2262665684 222.0076605401
217.8620736296 75.5035968739 216.1205387760
215.3489460055 72.9296290875 212.4518622563
231.4117436962 82.8176836503 214.9418666171
230.3171770415 90.6882903357 226.1609892074
222.8197410760 78.9918904669 215.5251748625
228.8034578205 85.4147970046 220.0156009581
219.1301667768 77.8658747461 215.6476261382
226.3529851246 90.1140597541 225.0995143096
224.6092404289 88.8773640148 229.9193488044
217.4818904645 92.6557933265 234.7577143481
218.4634935175 92.4362367222 233.7631710452
218.0150749790 79.0652209043 222.8532537870
215.7050921426 84.1792275605 225.8288881181
211.2733736284 83.7145435953 228.5436877848
225.2022289648 90.6973079654 231.6915930811
221.9010274835 93.6826723493 237.7530761547
222.1745889335 81.7542962544 222.8450477416
222.4789125641 77.0025976590 214.5078265622
222.4231242887 81.1636165821 219.6004128039
216.0482622019 90.7687907004 233.5347958416
230.7780475082 86.5282895194 219.9122660598
221.8575394118 86.5424298158 229.1086653634
211.7654461366 86.2518014222 236.2094026042
228.0701628751 89.7737252367 228.4420273488
222.1940747517 95.0641963066 234.1642597215
224.7753483458 92.0223406077 228.5743287895
220.1362023249 92.3825405869 237.4766615171
213.6884278720 87.1850688837 235.9182946314
234.1219934578 84.1905204214 214.5885308412
224.8858561996 85.6752584546 220.8173352103
216.1035871242 88.9614182717 231.3141407922
219.0813557946 88.2383815442 233.2144655679
235.9947956715 85.5417298176 214.8167223399
231.9546271580 85.5070053089 215.3814100336
211.6077159241 79.1997099613 227.7642215361
225.1044714056 85.2474799412 225.1246640827
226.3697455189 88.7850038358 223.4794454294
213.2978679969 86.3897336171 235.2453502369
221.9784319986 80.6747463579 216.9710074403
216.0092625836 80.1861837401 220.7700863895
218.9822970160 86.1040067388 225.7204294209
224.3997454509 83.5643126953 218.6204150032
230.8597254542 88.2272628555 221.9191069517
228.2939630319 86.7110148026 222.0009222479
224.0346496880 92.2871929702 229.4444173217
227.4311158095 87.4714950424 226.0983931573
224.5068897513 81.0079341312 216.9730313481
231.2053320976 88.9360587265 225.0984112104
224.2678891886 91.7653342407 228.6410437262
222.9912483822 88.9946244121 231.2633356573
225.2920683299 94.9110683111 234.8758193370
218.8042732124 73.4072452146 212.8873630799
212.0002950069 79.8349523313 228.2436010186
223.6301669058 73.9344395866 209.9330691797
206.5454980630 81.9829910772 234.8816866311
218.1081292534 73.4104927372 213.4081468895
205.6778106457 83.5951973368 232.5610614664
221.9136721525 81.6457345759 220.5811795021
214.7009809577 91.4031278189 235.3083475334
231.1823665384 88.7104126919 224.8401859870
211.3167629467 79.9722114726 223.9955668020
219.2582673018 76.7139550565 216.5556366521
216.5284052941 80.9667120685 226.2667366533
213.4829940826 76.4367876159 218.1080498259
213.1093833847 87.0721838625 231.2483913127
219.8246348444 72.9363880512 209.1695800860
222.3797192180 90.7986776018 228.8738094783
217.1189705179 75.7879928375 217.0182221956
215.9545663371 81.3695766426 222.2422696572
219.3677082362 72.6092193145 209.1135572720
230.8141160698 90.3942234212 224.7656163776
221.4972963421 89.8698224019 233.4185009032
216.8864110550 82.1941948318 222.5513418908
222.7273406890 87.1978603111 224.2628023915
222.5172163242 78.9963015771 216.8994772543
234.4804801810 87.5770024291 217.5250090827
223.0625065730 90.9115040595 233.5299159384
216.8850066461 71.0320018767 209.1172057246
213.2631679834 83.7187410855 227.0762089315
209.0192950733 83.3746172400 229.8095564557
227.4723214451 92.4308707445 227.0744740367
215.3450867219 74.9922537585 217.3747609267
219.3228092012 70.6691222053 209.1669009834
232.9822320492 88.1719835974 220.2771420373
232.2566551077 88.3752120030 221.0562117563
213.1551657214 88.5263501611 232.9688334675
227.2281258057 90.8844016058 230.4129065635
227.8194483560 93.1400144403 229.0422642490
211.2019919910 81.8365164658 226.3331687937
209.1485562510 76.9341534669 224.4750024437
212.9347027279 78.4687965357 220.9739081680
219.1369417077 75.7295869301 215.4516837273
215.2893281507 77.5520544550 218.1223471181
208.5530610920 77.4902581363 225.2510225296
235.9352680330 86.5874344227 214.1202752173
224.2188184034 85.9184852136 221.6051670272
229.3676352686 87.0147513909 219.1183196235
222.5120861876 78.1529450528 214.3389315402
210.9945167150 80.8545528206 230.2245990385
219.9702285831 84.4615011495 222.9981862979
228.2601559542 91.2589265725 230.1025214589
225.0469216938 87.4263092015 222.8158132844
217.9578043242 85.0836831962 230.2186964038
216.5616415297 77.5798820088 221.7924925335
205.4509632242 81.9376567145 230.7173302803
214.2249657355 88.4943614956 232.1388048655
229.8013385276 91.3400044361 223.9850216535
228.0934689336 92.6525523400 226.8677881983
206.4083657840 81.1971625576 229.1111134032
210.7345220039 84.5023916543 229.9007971128
208.1273748569 79.1786525238 230.3166369964
214.3630487807 87.8873876634 236.2661766873
220.7168915194 89.6272414963 233.6959044867
213.1574881029 75.6052640315 220.3691455819
208.5603393105 82.8550781404 229.5200601384
206.0358810288 79.6297151384 229.3668565656
231.1943219433 89.6740984134 220.9797934322
225.9107621543 84.9051842778 224.1090348051
208.2509792032 77.8278143741 225.4118226303
219.2240358309 79.9122323862 218.0554235011
214.8213451997 81.5538439170 228.2366870237
220.7034883283 83.6804708650 226.4697023474
214.0468902552 73.0182585476 215.8527606704
224.7819942871 88.2251005595 228.9946398613
235.0794420212 87.1377164086 216.2507299913
220.2559495296 85.7022626004 224.2862640801
222.6445779992 92.8557212894 231.1650281115
219.8768684910 81.0291603843 218.9215870661
212.0693689406 87.5625673485 232.6105804439
223.0297313017 84.0165475271 225.1564140290
223.1565534541 96.7791025289 235.5392188287
221.4926299221 81.3210594399 220.5018753305
225.9285084182 92.2164401218 227.9523845762
223.8062065816 87.2519121268 223.5252936494
218.9555954559 82.6650263732 226.5266830917
231.8176036687 86.9267992526 217.2030134862
215.6924242889 87.1333534164 229.4092200550
226.7704352763 93.4244969889 233.2050013661
226.2454835036 93.2607645923 234.0215201348
225.5103572932 82.7455274022 217.2165713552
215.4122031044 72.3464775699 211.7401489515
226.4968988181 93.9842516118 229.6602952585
219.3160370042 90.7103103544 236.0417475458
218.1489741197 79.0901709408 220.2738052696
226.9922845588 86.7191017158 220.5212300830
227.1322408674 86.8464747872 225.5615472651
226.7424874560 85.1394095805 218.7939957602
209.8846166198 84.8051294018 230.8985720725
225.5093467634 83.5984173600 217.8349812472
215.8481771063 82.7852277569 228.9775413697
211.7674375389 81.9118818662 230.9333136739
234.8046643797 83.3912814998 213.0993859051
220.9717934592 73.0827720031 210.8908577141
208.7951481480 78.8876895496 229.4693331163
214.9517380474 73.0631810125 215.3210151849
223.7942670260 75.7893127969 211.6578465904
217.2942606435 91.0726265886 232.9793984063
224.2504909821 82.8018556033 217.8159699534
229.4486413756 87.3246949166 224.2477826192
233.6504155382 83.2747403962 213.8297634855
208.7077213728 79.5674106468 230.3611453280
217.6961265112 87.0263708321 232.7630769327
214.3389345957 77.2600139860 223.3846259311
231.3989807669 89.8081262643 223.4437595081
227.6851407225 93.2945338532 229.1008606934
205.7343414287 81.6947617531 235.1427888477
221.8492997318 79.4384019492 215.6274489564
228.5564574090 84.8741375766 219.5452472179
213.7775905126 89.5944594340 233.7986818887
222.4759054831 95.0730352917 233.9661400870
218.9616324326 79.1838499278 219.7760767669
229.5273263581 88.1969572406 225.4337342342
212.8602212947 76.9974383150 224.1623260643
213.9625659978 83.0188239066 225.7135853899
219.5957150518 83.1088378014 226.5928335939
222.1060220583 87.5251560223 230.1334001226
235.5578481445 86.8924635011 214.8768387394
215.5383587590 86.7820127041 234.0598572725
229.3337989011 85.9122380636 217.8106775307
216.5665558767 83.5339837454 229.3594190250
213.4554255132 89.9005771912 234.4110572057
222.8914369164 73.8223554464 210.3614668861
207.5615627778 78.4672071029 226.3532903068
232.2624710870 81.8712693607 213.1671693605
214.9597892299 77.0600068609 220.2052196803
220.1604546587 81.8195077468 219.6655076751
225.3303933920 82.8710105419 217.3554530182
214.4112843758 82.4743717202 224.7244187886
225.0141989549 85.8411803612 225.9125160669
218.4611512568 77.8616861076 216.1400327413
209.3919220706 81.2215135173 226.9206635519
221.1348661171 81.1495135964 222.4946000189
224.3088630779 95.3703712588 237.8923478990
208.6638018155 77.2578528156 227.6064773232
210.8858384636 86.5477455567 232.2633135498
222.0808850616 73.6210763452 210.7269206335
220.1743096672 90.9937268862 230.7496200884
212.1328525860 83.8609846634 233.0330202802
223.5482694178 77.0558836894 213.7844813315
222.4270574287 93.4058540469 231.9900076056
212.6566985011 80.3486813273 223.4569691379
224.6938257393 84.0630689339 223.0240939390
226.6782267994 85.7684712768 223.2611573383
232.4948396998 85.2441044842 214.6610296379
227.2493525221 85.0466910466 218.3066836845
215.6055188034 85.8521513717 227.9218847563
229.6544880658 90.9204324147 223.6180943869
217.8685892089 88.2894581194 234.1702202356
225.0862536477 81.0095056421 216.8407439785
217.8980528674 73.0399674441 210.7210882265
225.7869986541 92.6116387675 233.5694387859
209.8584876080 78.8568971729 223.7275714673
221.0231420066 87.9395157835 226.4226768774
214.0470206782 81.5127218293 228.7594970587
224.9571341171 93.6366928739 230.3936365150
211.3807529881 78.6602828003 222.3611882019
231.5236403530 87.2211265644 217.7775130911
215.6569182717 78.1511416140 218.5751833463
223.7504847608 83.1231289227 220.9968676252
224.0485900584 94.4564023217 237.1085868390
208.9596975654 77.0047293236 227.0691049263
212.2652258247 78.4448789401 226.3618106318
209.5013271065 78.4934230565 223.5464172195
231.4634102975 85.1026309384 217.6712702552
223.2617020458 74.1625990337 209.3399801846
226.7338499709 87.3162908096 221.4358215924
218.5525459951 72.9137703309 210.0832137542
227.6629429986 92.1230279369 231.5892216685
206.1933788702 81.8024608347 230.0000109595
207.8060079685 86.2563404335 234.1745942255
224.6546293590 87.3221841613 227.9835736979
222.2682889885 83.0877659583 219.6373371998
217.8806697973 70.6008528022 210.1794302819
221.0160485108 75.6087105280 213.9183756220
232.4570385697 87.3756274854 219.6949240671
234.1813259308 86.1097121935 216.8785773769
222.4559523590 92.7922697192 231.2287046848
216.9849774843 91.1508659310 233.3026626740
226.1898814250 90.0827239707 230.2114990928
226.9082272759 92.8168610878 227.9573985973
221.5453406840 94.6285763196 234.1203339341
218.1002549835 90.7661405811 237.0122196862
219.8720638608 88.5070145245 232.9606786912
211.5165119521 79.4662605831 228.1554374416
221.6912161499 84.5442063110 221.8275983929
223.3009138530 92.3207510451 235.0621207589
212.2641018355 80.9466052775 224.4721511277
218.8563370556 73.1693211666 212.5594712239
232.0303210736 85.5158296772 217.7515733622
217.3247971722 91.5565027855 233.5417327428
211.1735102619 83.9657800583 233.8697521181
211.4484785590 85.1443990122 235.0971294117
222.1598895077 96.6213655497 236.0701511486
209.0344301307 76.9787585058 224.8799299568
234.2739404112 87.5052552387 216.0747325951
210.2428861005 78.7951143156 228.2842740772
205.3098210142 82.5294956365 231.5344542298
208.2944354406 85.8403919775 233.3316487070
227.3198712779 85.3572238009 218.6298918522
213.2370412763 80.0949827896 222.7182748931
229.1887673628 86.5025862811 218.6309477777
218.3237304104 85.7036089440 230.7022116937
214.7368140427 80.6399761101 222.2644389915
209.3267392578 86.7311084778 233.6492056113
212.6577958263 79.5653391974 227.4276615563
221.5572963535 72.7665745528 210.0774996539
217.3910045643 84.2592202210 224.6776713522
214.9347651177 79.2501328568 220.4350064393
215.4424354910 76.8925616697 217.2066129574
214.4453938116 73.0565005258 213.3573500737
210.3627367482 82.5269152900 227.7815587839
213.5849578255 83.6692278016 226.7778031922
221.1027621011 81.1615143066 223.0759445761
210.4330668600 85.4208833491 236.1890488530
225.3648788202 93.4330494541 234.8925090605
221.6172054842 81.7679920674 223.4466136679
213.8526640716 84.4527649340 232.4766768172
223.1458600785 94.2341540663 237.5064485259
221.5860700480 85.5725368103 228.1158275712
209.3364173471 78.2453319371 223.3628587669
234.3362512946 85.0376563891 213.0412910472
220.4756333261 72.4183268363 208.5357162517
218.1431705777 84.1093377299 228.8926337237
223.5768966979 83.0740798063 221.0704523545
226.2638524142 89.4381037169 224.3473927968
216.2482877883 74.4074179920 213.5907082260
226.7497999787 93.8216222105 231.8061166511
222.6234511775 74.9948518587 211.9838186183
235.0232570615 87.0809162089 216.7226142777
217.6865496237 84.1137878885 229.2380436707
223.5010440596 87.8186386864 229.4516735693
224.3067056385 83.3808779857 223.4042818879
231.3259402586 84.5869210537 217.1467231308
210.6197977301 77.4537805673 226.3774476029
227.8261406143 88.5207340708 222.0826450308
222.8324685307 88.0737606497 230.2616647227
223.2283142618 75.2404252497 211.8197842794
211.2212342064 84.4073818606 229.4228256489
217.2640858585 84.4370638376 229.9444741498
232.3295996753 85.8346782694 217.9167011382
211.6929625198 85.6877287938 230.6247525820
222.7892337962 80.6085540161 216.9014232717
212.0794159525 79.3271653996 222.6484742439
226.6710118921 92.1576949872 227.3324338928
215.2891935171 88.0383202982 235.7731883412
209.9100227589 77.7664101407 227.2852358691
208.2391612217 77.9853603425 224.8483040946
219.0385205248 89.8248704892 230.1799430295
209.2291848245 79.8288301180 230.2920065394
218.6415854178 71.9593459088 211.2522651477
230.6931953099 87.7285880022 219.0019889000
229.6555775423 89.9311998182 227.4602096175
226.6379703084 87.7018471253 221.9730402574
216.1791686487 74.8577089364 216.5865652373
219.0128905707 83.5230453452 227.5279880377
216.8853752237 82.0493815267 227.3155558829
209.6512777532 77.3464163489 222.0417271401
225.8300858148 90.6627447255 226.1503729767
223.4757195696 82.4187230880 220.3367469481
219.0859577677 81.9643963780 220.6393804985
211.1163486683 75.4142401885 223.5417690399
219.0786898150 84.5925004601 223.8206157705
217.0767243098 73.4225611766 214.1836101422
216.0207327363 88.3259420145 230.6076560990
216.6074151630 92.7631421659 235.5331878774
219.3057177348 93.4921394410 234.4147945809
220.3673993736 81.1410973755 221.8304365166
228.3174390190 92.8140442554 227.7795538113
215.9779275584 74.1156365131 215.8356929404
228.3857916702 83.8924894765 216.0790284803
216.8878917468 88.6354822384 230.3390263490
207.9853424373 79.9824214880 231.3993807398
217.1194647963 75.4477373036 216.6036282193
217.6634015660 70.8310977865 210.6147121763
227.5797159575 85.9551745340 219.1609492546
216.4253792982 88.8626078511 230.9563711636
216.9139842701 87.6999749581 234.1594777990
231.0671462418 82.0063960621 214.2159055123
209.1576075026 83.1255576540 234.3402493727
225.1674296583 85.8322409206 225.7889432551
